ply
format ascii 1.0
comment Created by CloudCompare v2.11 alpha (Anoia)
comment Created 20/2/20 下午9:58
obj_info Generated by CloudCompare!
element vertex 1122
property float x
property float y
property float z
property uchar red
property uchar green
property uchar blue
end_header
-0.0581262 0.00724109 0.764943 102 115 124 
-0.0573649 0.0105909 0.765963 96 113 125 
-0.0626473 -0.0163808 0.762542 81 97 105 
-0.0620516 -0.0143103 0.762359 88 104 112 
-0.0614176 -0.0119569 0.762422 90 106 114 
-0.0607461 -0.009322 0.762732 85 98 107 
-0.0600905 -0.00678759 0.762969 99 112 121 
-0.0594636 -0.00444827 0.763053 90 102 108 
-0.058852 -0.00220834 0.763062 78 95 107 
-0.0582943 -0.000351574 0.762753 64 81 93 
-0.0575705 0.0027321 0.763505 95 110 123 
-0.0569783 0.00486436 0.763452 100 112 118 
-0.056184 0.00850202 0.764712 93 105 111 
-0.0613341 -0.0178394 0.761894 98 112 118 
-0.0607671 -0.0159577 0.761549 93 107 113 
-0.0601361 -0.0136014 0.761608 92 106 112 
-0.0594944 -0.0111541 0.761754 94 108 114 
-0.0588421 -0.00861626 0.761987 101 115 121 
-0.0582052 -0.00617855 0.762148 80 91 102 
-0.0575835 -0.00384061 0.762234 77 92 107 
-0.0569767 -0.001602 0.762246 77 92 107 
-0.0564479 6.44512e-05 0.761777 97 112 125 
-0.0557317 0.00314651 0.762532 100 112 118 
-0.0549188 0.00697703 0.763952 90 102 108 
-0.0606211 -0.0214747 0.76136 90 107 112 
-0.0600412 -0.0194912 0.761087 94 108 114 
-0.0594631 -0.0175112 0.760819 91 105 111 
-0.0588609 -0.0153432 0.760715 92 106 112 
-0.0582478 -0.0130837 0.760697 93 109 119 
-0.0576115 -0.0106377 0.760846 71 87 97 
-0.0569776 -0.0081964 0.761002 72 87 104 
-0.056346 -0.00575981 0.761165 74 91 107 
-0.0557417 -0.00351781 0.761173 74 91 107 
-0.0551023 -0.000995725 0.761431 80 97 113 
-0.0543793 0.0021836 0.762265 92 103 114 
-0.0593451 -0.0233232 0.7604 85 100 113 
-0.0587544 -0.0212409 0.760202 82 98 108 
-0.0581655 -0.0191622 0.76001 89 105 115 
-0.0575784 -0.0170871 0.759823 95 112 124 
-0.0569806 -0.01492 0.759721 64 86 108 
-0.0563598 -0.012566 0.759786 59 81 103 
-0.0557413 -0.0102165 0.759858 60 81 98 
-0.0551003 -0.00768127 0.760097 80 102 116 
-0.0544742 -0.00524601 0.760263 68 90 104 
-0.0538018 -0.00243618 0.76076 65 86 103 
-0.0530478 0.00103048 0.761836 107 118 127 
-0.0580364 -0.0249815 0.759598 78 95 109 
-0.0574355 -0.0228004 0.759477 90 108 117 
-0.0568489 -0.0207191 0.759282 90 108 117 
-0.056264 -0.0186413 0.759092 78 100 114 
-0.0556933 -0.0166628 0.758827 54 77 94 
-0.0551121 -0.014592 0.758647 85 108 125 
-0.0545083 -0.0123344 0.758634 99 119 134 
-0.0538826 -0.00989044 0.758788 78 100 114 
-0.0532593 -0.0074513 0.758949 86 108 122 
-0.0525431 -0.00425776 0.759766 56 80 94 
-0.0517477 -0.000407942 0.761163 114 125 136 
-0.056721 -0.0266417 0.758798 76 91 104 
-0.0560981 -0.0242655 0.758832 90 108 117 
-0.0555139 -0.0221816 0.758634 78 96 105 
-0.0549436 -0.0201972 0.758361 70 94 108 
-0.0543869 -0.0183118 0.758014 87 107 120 
-0.0538318 -0.0164294 0.75767 99 119 132 
-0.0532424 -0.0142639 0.757573 97 113 123 
-0.0526316 -0.0119118 0.757642 71 93 105 
-0.0520346 -0.00965922 0.757637 85 107 119 
-0.0512999 -0.00627128 0.758612 84 108 120 
-0.050465 -0.00203758 0.760329 102 117 134 
-0.0554471 -0.0286888 0.757682 96 113 127 
-0.0547791 -0.0259244 0.758029 73 93 108 
-0.0541614 -0.0235497 0.758067 64 84 99 
-0.0536051 -0.0216589 0.757712 88 105 117 
-0.0530503 -0.0197712 0.757361 94 112 119 
-0.0525087 -0.0179821 0.756935 88 106 113 
-0.0519452 -0.0160047 0.756673 73 94 102 
-0.0513603 -0.0138401 0.756578 72 94 104 
-0.0507659 -0.0115842 0.756569 68 90 100 
-0.0500254 -0.00809713 0.75762 89 116 127 
-0.049187 -0.00376382 0.759414 78 100 114 
-0.0541881 -0.0309311 0.756409 73 95 109 
-0.0534416 -0.0274889 0.757307 73 95 107 
-0.0528037 -0.0249192 0.7575 84 106 118 
-0.0522493 -0.0230262 0.757143 98 114 122 
-0.051708 -0.0212321 0.75671 88 108 119 
-0.051168 -0.0194407 0.756281 66 86 97 
-0.0506181 -0.0175565 0.755936 73 95 109 
-0.050047 -0.0154845 0.755757 95 117 129 
-0.0494777 -0.0134162 0.755583 66 88 100 
-0.0487542 -0.01002 0.756549 75 102 113 
-0.047935 -0.00577693 0.758256 74 101 114 
-0.0529887 -0.0337548 0.754664 69 92 109 
-0.0521438 -0.0294404 0.756268 62 85 102 
-0.0514521 -0.0263863 0.756855 94 115 123 
-0.0508771 -0.0242989 0.756654 98 114 122 
-0.0503262 -0.0224068 0.756298 66 87 104 
-0.0497993 -0.0207093 0.755787 67 88 105 
-0.0492625 -0.0189187 0.75536 70 93 112 
-0.048738 -0.0172262 0.754856 85 109 123 
-0.0481271 -0.0147738 0.755002 78 102 116 
-0.0474422 -0.0116598 0.755721 72 96 108 
-0.0466418 -0.00750734 0.757344 85 109 123 
-0.0517651 -0.0364855 0.752999 78 95 109 
-0.050849 -0.0314904 0.755152 80 101 118 
-0.0501173 -0.0280473 0.756052 95 114 118 
-0.0495002 -0.0255728 0.756166 88 108 119 
-0.0489404 -0.0235828 0.755888 62 87 108 
-0.048415 -0.0218835 0.755375 63 88 109 
-0.0479125 -0.020378 0.754704 67 92 115 
-0.0473571 -0.0183968 0.754439 68 93 116 
-0.0467604 -0.0160373 0.754502 89 115 131 
-0.0460703 -0.0128252 0.7553 77 101 113 
-0.0505516 -0.0394127 0.751178 111 126 139 
-0.0496113 -0.0341215 0.753561 100 115 128 
-0.0487975 -0.0299028 0.75509 72 88 98 
-0.0481185 -0.0268479 0.755679 60 87 109 
-0.0475395 -0.0246637 0.755558 63 90 112 
-0.0470158 -0.0229628 0.755043 65 95 118 
-0.046504 -0.0213601 0.754451 63 93 114 
-0.0459405 -0.0192816 0.754265 78 108 129 
-0.0453473 -0.0169203 0.754326 74 95 114 
-0.0446527 -0.0136104 0.755202 94 114 129 
-0.0493678 -0.0427302 0.749043 98 114 124 
-0.048394 -0.0370454 0.751735 104 120 130 
-0.0475125 -0.0321459 0.753813 70 87 99 
-0.0467744 -0.0285092 0.754874 60 87 109 
-0.0461454 -0.0258418 0.755149 62 89 111 
-0.0455921 -0.0238513 0.754871 84 116 138 
-0.0450817 -0.0222472 0.754278 59 89 108 
-0.0445313 -0.0202627 0.75401 72 102 121 
-0.0439418 -0.0178995 0.754069 73 92 110 
-0.0432429 -0.0144915 0.755024 90 107 123 
-0.047153 -0.0398764 0.74999 97 114 126 
-0.0461971 -0.0341987 0.752695 66 86 99 
-0.0454031 -0.0299798 0.754229 59 82 99 
-0.0447472 -0.0270209 0.75474 80 103 120 
-0.044186 -0.0249324 0.75454 82 109 131 
-0.0436569 -0.0231351 0.754106 70 98 115 
-0.0431091 -0.021149 0.753836 66 94 111 
-0.0425131 -0.0186883 0.753974 79 99 114 
-0.0418602 -0.0156597 0.754604 89 106 120 
-0.0458379 -0.0421309 0.748721 75 96 113 
-0.0448525 -0.0360609 0.751738 100 121 129 
-0.0440359 -0.0315483 0.753505 103 120 125 
-0.0433647 -0.0283937 0.754172 106 123 128 
-0.0427961 -0.0262067 0.75405 67 89 103 
-0.042249 -0.0242155 0.753773 86 109 126 
-0.0417036 -0.0222276 0.753502 83 106 123 
-0.0411211 -0.0198604 0.753557 97 114 130 
-0.0444433 -0.0437108 0.748007 70 96 114 
-0.0434508 -0.0374422 0.751178 105 123 130 
-0.042643 -0.0329255 0.752941 105 119 125 
-0.041977 -0.0297678 0.753605 90 104 110 
-0.04144 -0.0278669 0.753241 66 88 100 
-0.0409046 -0.025969 0.752881 78 102 116 
-0.0403421 -0.0237865 0.752766 86 110 124 
-0.0397437 -0.021225 0.752979 95 110 127 
-0.0439712 -0.051001 0.744624 64 90 108 
-0.0430329 -0.0451957 0.747373 90 116 134 
-0.0421017 -0.0394049 0.750143 108 126 133 
-0.0412927 -0.0347868 0.751981 91 104 113 
-0.0406221 -0.0315289 0.752721 85 98 107 
-0.0400774 -0.0295289 0.752433 89 109 120 
-0.0395156 -0.0273401 0.75231 68 90 102 
-0.0390114 -0.0257309 0.751711 92 114 126 
-0.0384255 -0.0232616 0.751839 107 122 137 
-0.042505 -0.0521045 0.74431 66 94 111 
-0.0416356 -0.0468759 0.746582 79 107 124 
-0.0407256 -0.0411764 0.749268 74 94 107 
-0.0399346 -0.0366501 0.751022 106 121 134 
-0.0392783 -0.0334848 0.751678 88 103 116 
-0.0386987 -0.0310965 0.751705 90 110 123 
-0.038185 -0.0293857 0.751179 99 121 131 
-0.0376995 -0.0279656 0.750416 84 106 116 
-0.0371163 -0.0254924 0.750539 90 110 121 
-0.041685 -0.0562183 0.743553 84 117 132 
-0.0410442 -0.0533061 0.743918 63 94 110 
-0.0402498 -0.0487518 0.745634 68 99 115 
-0.0393879 -0.0434338 0.747998 111 130 148 
-0.038614 -0.0389988 0.749668 96 113 127 
-0.0379533 -0.0357323 0.750398 101 118 132 
-0.0373762 -0.0333403 0.75042 88 108 121 
-0.0368544 -0.03153 0.74997 100 120 131 
-0.0363603 -0.0300107 0.749282 99 119 130 
-0.0357714 -0.0274379 0.749482 72 94 106 
-0.0401426 -0.0566453 0.743792 81 111 130 
-0.039516 -0.0538288 0.744077 61 89 106 
-0.0388027 -0.0500477 0.74516 69 97 114 
-0.0380226 -0.0455002 0.746888 85 104 124 
-0.0372744 -0.0412536 0.748394 85 100 115 
-0.0366097 -0.0378861 0.749198 106 121 136 
-0.0360267 -0.0353938 0.749296 109 124 137 
-0.0354717 -0.0331952 0.749161 103 121 130 
-0.0349357 -0.0311928 0.748872 99 117 126 
-0.0344351 -0.0295778 0.748266 69 92 109 
-0.0390818 -0.0583359 0.745006 68 88 110 
-0.0385823 -0.0568776 0.744188 82 107 128 
-0.0379784 -0.0542544 0.744315 68 96 111 
-0.0373247 -0.0510537 0.744924 68 96 111 
-0.0366313 -0.047375 0.745937 66 87 106 
-0.0359421 -0.0437046 0.746963 80 97 109 
-0.0352738 -0.0402357 0.747842 102 119 131 
-0.0346599 -0.0373533 0.748253 107 120 129 
-0.0340989 -0.035055 0.748194 103 119 127 
-0.0335565 -0.0329534 0.747981 105 121 129 
-0.033024 -0.0309514 0.747693 69 92 109 
-0.0369884 -0.0567199 0.744897 73 92 110 
-0.0364234 -0.0544854 0.744711 103 124 141 
-0.0358097 -0.0516719 0.745003 67 88 105 
-0.0351905 -0.048767 0.745383 68 89 106 
-0.0345575 -0.0456742 0.74593 105 120 133 
-0.0339112 -0.0423945 0.746645 105 120 133 
-0.033293 -0.0394116 0.747132 108 121 130 
-0.0327101 -0.0368205 0.747308 77 92 107 
-0.0321779 -0.0348123 0.747012 88 103 118 
-0.0316473 -0.0328074 0.74672 97 119 141 
-0.0348528 -0.0545214 0.745263 101 122 139 
-0.0342853 -0.0521931 0.745161 93 114 131 
-0.0337198 -0.0498691 0.745066 102 122 135 
-0.0331323 -0.0472584 0.745215 105 122 136 
-0.0325153 -0.0442656 0.745688 96 113 127 
-0.0319014 -0.041279 0.746171 85 100 113 
-0.0313142 -0.038588 0.746423 71 88 104 
-0.030776 -0.0364805 0.746203 76 93 109 
-0.0327442 -0.05252 0.745477 111 130 148 
-0.0322061 -0.0504865 0.745145 111 128 140 
-0.0316697 -0.0484562 0.744817 92 107 122 
-0.0310886 -0.0458481 0.744971 104 119 134 
-0.0304793 -0.0428582 0.74545 76 91 108 
-0.0298806 -0.0399711 0.745858 78 97 117 
-0.0293299 -0.0376684 0.745796 72 91 111 
-0.0306912 -0.0511042 0.745223 83 100 116 
-0.0301651 -0.0491699 0.744816 96 112 122 
-0.0296255 -0.0470447 0.744571 111 127 137 
-0.0290359 -0.0442457 0.744889 94 114 129 
-0.0284417 -0.0413556 0.745294 65 94 120 
-0.0278649 -0.0386644 0.745549 60 89 115 
-0.0291457 -0.051333 0.745617 81 97 116 
-0.0286515 -0.0497868 0.744893 112 127 142 
-0.0281293 -0.0478544 0.744489 123 138 153 
-0.027573 -0.0454408 0.744487 89 110 129 
-0.0269905 -0.0426448 0.744811 60 91 116 
-0.0271084 -0.0500151 0.745287 106 122 143 
-0.026603 -0.0482764 0.744725 97 113 134 
-0.0260644 -0.0460555 0.744563 71 91 113 
-0.0255141 -0.043645 0.744567 63 93 116 
-0.0250765 -0.0486984 0.74496 79 97 122 
-0.0245546 -0.0466705 0.744639 79 89 115 
-0.0230308 -0.0470916 0.744874 80 88 114 
-0.0482793 -0.0462596 0.706232 78 93 110 
-0.0466254 -0.0464017 0.706901 82 97 114 
-0.0484607 -0.044742 0.706354 76 93 109 
-0.0467027 -0.0449027 0.706955 80 97 113 
-0.0446367 -0.0451134 0.707345 81 97 116 
-0.050916 -0.0431002 0.70444 94 103 124 
-0.0504028 -0.0430595 0.705869 94 104 120 
-0.0488495 -0.0431885 0.706612 81 91 107 
-0.0470909 -0.0433514 0.707215 85 95 111 
-0.0446102 -0.0436328 0.70733 83 98 113 
-0.0423413 -0.0438802 0.707577 80 100 115 
-0.0518193 -0.0415845 0.703267 81 90 111 
-0.0509937 -0.0415946 0.704491 87 96 117 
-0.0503759 -0.0415702 0.705852 94 104 120 
-0.0492379 -0.041632 0.706871 97 107 121 
-0.0476861 -0.0417626 0.707612 88 98 112 
-0.0449976 -0.0420824 0.707591 87 99 113 
-0.0421082 -0.0424365 0.707424 85 100 113 
-0.0512795 -0.0400526 0.704678 85 96 117 
-0.0506607 -0.0400275 0.70604 90 102 120 
-0.0498335 -0.0400375 0.707266 94 106 124 
-0.0481769 -0.0401872 0.707941 92 104 118 
-0.0452811 -0.0405464 0.707783 88 100 114 
-0.042185 -0.0409403 0.707478 88 103 116 
-0.0394054 -0.0412817 0.707374 89 104 117 
-0.0516691 -0.0384902 0.704933 83 98 115 
-0.051257 -0.038429 0.706433 88 103 120 
-0.0500134 -0.0385097 0.707386 91 106 123 
-0.0486673 -0.0386081 0.708269 94 106 122 
-0.045978 -0.0389369 0.708251 92 104 118 
-0.0422617 -0.0394427 0.707533 91 103 117 
-0.03907 -0.0398597 0.707151 91 103 117 
-0.0368119 -0.0401171 0.707388 85 102 116 
-0.0532027 -0.0367268 0.705939 83 98 115 
-0.0529954 -0.0366284 0.707579 88 103 118 
-0.0518525 -0.0366921 0.708605 92 107 122 
-0.0507104 -0.0367557 0.709629 97 109 125 
-0.0478114 -0.037125 0.709478 93 105 119 
-0.0432671 -0.0377817 0.708211 92 104 118 
-0.0398682 -0.0382405 0.707693 92 104 118 
-0.0364773 -0.038699 0.707166 88 103 116 
-0.0347381 -0.0388698 0.707747 70 97 119 
-0.0555562 -0.0345356 0.711058 91 106 121 
-0.0546149 -0.0345634 0.712228 98 110 124 
-0.046748 -0.0356769 0.71055 93 105 119 
-0.0421079 -0.0363609 0.709207 97 109 123 
-0.0374798 -0.0370445 0.707849 88 103 116 
-0.0345067 -0.0374362 0.707594 82 103 120 
-0.0327706 -0.0376091 0.708172 73 94 111 
-0.0563287 -0.0326006 0.715174 94 107 118 
-0.0521855 -0.0332021 0.714203 98 111 122 
-0.0456843 -0.0342285 0.711622 98 111 122 
-0.0402292 -0.0350695 0.709716 89 105 115 
-0.0354045 -0.0357992 0.70821 84 101 115 
-0.0326422 -0.0361591 0.70809 83 100 114 
-0.0310112 -0.0363155 0.708735 62 93 118 
-0.0553504 -0.0311113 0.71633 98 111 120 
-0.0515223 -0.0316645 0.715562 101 114 123 
-0.0446204 -0.0327796 0.712695 90 103 112 
-0.0379431 -0.0338568 0.709943 90 103 112 
-0.0337428 -0.0344837 0.708848 86 99 108 
-0.0570697 -0.0292697 0.717487 98 111 120 
-0.0542685 -0.0296402 0.717418 102 116 122 
-0.0486997 -0.0305235 0.715462 92 104 110 
-0.0417102 -0.0316724 0.712511 93 105 111 
-0.0358665 -0.0326117 0.710306 85 98 107 
-0.0589935 -0.0273797 0.718781 98 111 120 
-0.0556753 -0.0278513 0.71837 102 116 122 
-0.0516461 -0.0284575 0.717463 93 105 111 
-0.0461916 -0.029333 0.715566 94 106 112 
-0.0398306 -0.0303813 0.713021 84 98 104 
-0.0336915 -0.0313906 0.710595 81 96 111 
-0.0595769 -0.0257328 0.719176 100 113 122 
-0.056978 -0.0260737 0.719252 101 115 121 
-0.053974 -0.0264926 0.719044 99 111 117 
-0.0495421 -0.0271844 0.717851 94 106 112 
-0.0435866 -0.0281686 0.715594 92 104 110 
-0.036524 -0.0293669 0.712546 83 96 105 
-0.0601596 -0.0240816 0.71957 99 115 123 
-0.0578685 -0.0243675 0.719856 101 115 121 
-0.0552738 -0.0247125 0.719928 104 116 122 
-0.0518652 -0.0252155 0.719437 94 106 112 
-0.0470327 -0.0259951 0.717956 93 105 111 
-0.0402729 -0.0271498 0.715127 85 97 103 
-0.0607417 -0.0224264 0.719963 100 116 124 
-0.0585524 -0.0226956 0.720321 99 116 121 
-0.0562648 -0.0229847 0.720604 104 121 126 
-0.0531623 -0.023434 0.720324 92 106 112 
-0.0490445 -0.0240833 0.719337 89 106 111 
-0.0431 -0.0250928 0.717075 81 95 101 
-0.0363565 -0.0262619 0.714231 81 95 101 
-0.0636203 -0.0204741 0.72006 86 106 117 
-0.0613232 -0.0207669 0.720356 100 116 124 
-0.0593386 -0.0209987 0.720854 101 114 123 
-0.0569472 -0.0213116 0.72107 106 119 128 
-0.0540488 -0.0217258 0.720932 87 101 107 
-0.0502371 -0.0223224 0.720158 89 106 111 
-0.0454145 -0.0231216 0.718671 84 98 104 
-0.0394841 -0.0241434 0.716395 78 92 98 
-0.0645108 -0.0187453 0.720657 84 106 118 
-0.0623153 -0.0190211 0.721024 102 118 128 
-0.0599185 -0.0193378 0.721249 104 117 126 
-0.0575264 -0.0196544 0.721467 106 119 128 
-0.0545251 -0.0200942 0.721261 98 112 118 
-0.0509177 -0.020657 0.720629 94 106 112 
-0.0468091 -0.0213223 0.719635 88 100 106 
-0.041998 -0.022131 0.718137 85 97 103 
-0.0651946 -0.0170525 0.721116 78 102 114 
-0.0631008 -0.0173106 0.721554 99 117 126 
-0.0604978 -0.0176727 0.721642 106 119 128 
-0.0576952 -0.0180763 0.721585 107 120 129 
-0.0545918 -0.0185421 0.721311 101 115 121 
-0.0512913 -0.0190493 0.72089 95 107 113 
-0.0478966 -0.0195771 0.720388 90 102 108 
-0.0441028 -0.0201878 0.719596 86 98 104 
-0.040115 -0.0208397 0.718651 83 95 101 
-0.0660834 -0.0153128 0.721711 77 101 115 
-0.0636801 -0.0156372 0.721946 95 115 126 
-0.0610763 -0.0160035 0.722036 106 119 128 
-0.0578637 -0.0164961 0.721703 107 120 129 
-0.0546584 -0.0169885 0.721361 104 118 124 
-0.0518686 -0.0173964 0.72129 96 106 113 
-0.0488811 -0.0178462 0.72107 92 104 110 
-0.046002 -0.0182747 0.720913 87 99 105 
-0.0427231 -0.0187873 0.720466 85 97 103 
-0.0668685 -0.0135888 0.722237 75 99 113 
-0.0646695 -0.0138741 0.722612 86 106 119 
-0.0616543 -0.0143301 0.722429 103 119 127 
-0.0582366 -0.0148711 0.72196 103 119 127 
-0.0548268 -0.0154119 0.721481 105 119 125 
-0.0522411 -0.0157819 0.72155 101 113 119 
-0.0497628 -0.0161304 0.721682 96 108 114 
-0.0472895 -0.0164787 0.721808 87 99 105 
-0.0445166 -0.0168907 0.721717 85 97 103 
-0.0676528 -0.0118595 0.722763 77 99 113 
-0.0657605 -0.0120832 0.723347 83 103 116 
-0.0622318 -0.0126524 0.722821 95 111 121 
-0.0585067 -0.0132646 0.722147 102 118 128 
-0.0551991 -0.0137901 0.721739 103 120 125 
-0.0528172 -0.0141211 0.721949 100 114 120 
-0.0505418 -0.0144304 0.722223 94 108 114 
-0.0482707 -0.0147395 0.722492 87 101 107 
-0.0456996 -0.0151132 0.722544 83 96 105 
-0.0427285 -0.015573 0.722308 84 97 106 
-0.0686418 -0.0100812 0.723426 75 97 111 
-0.0663375 -0.0103949 0.723737 80 102 116 
-0.0637304 -0.0107739 0.723835 89 106 118 
-0.0600036 -0.0113932 0.723165 99 116 128 
-0.056388 -0.0119903 0.722552 102 118 126 
-0.0540043 -0.0123251 0.722766 98 114 122 
-0.0515235 -0.0126815 0.722904 92 108 116 
-0.0491494 -0.0130159 0.723105 85 102 107 
-0.0467799 -0.0133502 0.723301 82 98 106 
-0.0440101 -0.0137716 0.723208 81 97 105 
-0.0692189 -0.0083852 0.723813 75 97 111 
-0.0672216 -0.00863594 0.724332 80 102 116 
-0.0649204 -0.00895292 0.724641 87 104 116 
-0.0616013 -0.00949085 0.724251 98 115 127 
-0.0584942 -0.00998431 0.72399 100 116 126 
-0.0551901 -0.0105218 0.723582 99 115 125 
-0.0526059 -0.0109043 0.723653 95 111 121 
-0.0501288 -0.0112645 0.723788 86 102 112 
-0.0477579 -0.0116025 0.723986 81 97 107 
-0.0452905 -0.0119624 0.724108 81 97 107 
-0.0715915 -0.00647621 0.723537 75 97 111 
-0.0700008 -0.00664021 0.724337 75 97 111 
-0.0681047 -0.00687127 0.724927 80 102 116 
-0.0659046 -0.00716935 0.725307 87 104 116 
-0.0630954 -0.00760148 0.725267 98 115 127 
-0.0599863 -0.00810051 0.725011 102 118 126 
-0.0567823 -0.00862168 0.724676 102 115 124 
-0.0538907 -0.00907552 0.724542 97 110 119 
-0.0513101 -0.00946212 0.724609 88 101 110 
-0.0487348 -0.00984852 0.724671 82 98 108 
-0.0463673 -0.0101901 0.724866 79 95 105 
-0.0723739 -0.00472432 0.724058 75 97 111 
-0.0705765 -0.00493526 0.724723 77 99 113 
-0.0686795 -0.00516877 0.725315 78 100 114 
-0.0667855 -0.00540213 0.725904 88 105 117 
-0.0641796 -0.00579378 0.726005 95 112 124 
-0.061273 -0.00625312 0.725891 105 118 127 
-0.0582711 -0.00673485 0.725699 104 116 122 
-0.0552759 -0.00721636 0.725499 99 111 117 
-0.0524904 -0.00765242 0.725431 90 104 110 
-0.0500147 -0.00802048 0.725566 85 99 105 
-0.047443 -0.00841096 0.725624 83 97 103 
-0.0731555 -0.00296721 0.724578 75 96 113 
-0.0712543 -0.00320324 0.725177 75 96 113 
-0.0693561 -0.00343913 0.725772 77 99 113 
-0.0673587 -0.00369783 0.726294 88 105 117 
-0.0649563 -0.00404793 0.726535 91 108 120 
-0.0623547 -0.00444363 0.726631 102 113 122 
-0.0594532 -0.00490777 0.726513 106 118 122 
-0.0563549 -0.00541747 0.726246 97 109 113 
-0.0535679 -0.00585827 0.726181 93 105 111 
-0.0509895 -0.00625318 0.726249 88 100 106 
-0.0483153 -0.00667077 0.726239 85 97 103 
-0.0743473 -0.00111216 0.725371 75 97 111 
-0.0719312 -0.00146645 0.72563 75 97 111 
-0.0699295 -0.00172794 0.726159 77 99 113 
-0.0679313 -0.00198931 0.726683 85 105 116 
-0.0656302 -0.00231998 0.726995 87 107 118 
-0.0630278 -0.00271991 0.727094 99 110 121 
-0.0602273 -0.00316595 0.727047 104 111 119 
-0.0573313 -0.00363487 0.726923 92 99 107 
-0.0546445 -0.00405735 0.726931 92 99 107 
-0.0518621 -0.00450274 0.726861 89 101 107 
-0.0489846 -0.00497104 0.726714 85 97 103 
-0.0749218 0.000609651 0.725754 75 97 109 
-0.0723 0.000204816 0.725878 75 97 109 
-0.0706047 1.08778e-05 0.726614 75 99 111 
-0.0687075 -0.000229746 0.727209 83 103 114 
-0.0664053 -0.00056389 0.727524 86 106 117 
-0.0640056 -0.000921249 0.727764 97 108 119 
-0.0613056 -0.00134866 0.727789 106 113 121 
-0.0584083 -0.00182261 0.727668 92 99 107 
-0.05572 -0.0022496 0.727679 80 85 94 
-0.0529362 -0.00269975 0.727613 89 100 109 
-0.0501584 -0.00314972 0.727539 88 99 108 
-0.0748798 0.0021936 0.725726 77 99 111 
-0.0726681 0.00187925 0.726125 75 97 109 
-0.0712792 0.00175446 0.727069 75 99 111 
-0.069483 0.00153506 0.727735 82 102 113 
-0.0674856 0.00126846 0.728259 86 106 117 
-0.0649825 0.000883698 0.728433 97 108 119 
-0.0622812 0.000451788 0.728462 106 113 121 
-0.0593827 -2.71946e-05 0.728344 104 111 119 
-0.0566931 -0.000458673 0.728357 76 81 90 
-0.0541103 -0.000866324 0.728434 90 101 110 
-0.051331 -0.00132103 0.728364 89 100 109 
-0.0754532 0.0039223 0.726108 82 99 113 
-0.0734457 0.00365265 0.726646 78 95 109 
-0.0718506 0.00347885 0.727454 75 97 109 
-0.0703598 0.00332908 0.728329 81 103 113 
-0.0685648 0.00310762 0.728994 85 107 117 
-0.0660602 0.00271885 0.729171 93 108 121 
-0.063459 0.00230636 0.729272 104 115 124 
-0.0604575 0.00179842 0.729088 108 119 128 
-0.057564 0.00131463 0.728965 86 96 103 
-0.05498 0.000902742 0.729045 88 101 110 
-0.0524014 0.000491068 0.729118 88 101 110 
-0.0767439 0.00582467 0.726966 82 99 113 
-0.0750414 0.00562488 0.727713 80 97 111 
-0.0733414 0.00542521 0.728457 75 97 109 
-0.0720521 0.00532238 0.729473 82 102 113 
-0.0702543 0.0050987 0.730142 86 106 117 
-0.0674419 0.00463338 0.730115 93 109 119 
-0.0647373 0.00419244 0.730151 104 115 124 
-0.0615313 0.00363088 0.729831 107 118 127 
-0.0584338 0.00309372 0.729572 86 100 106 
-0.0558488 0.00267762 0.729654 88 101 110 
-0.0531682 0.00223756 0.72966 88 101 110 
-0.0794685 0.00807738 0.728779 80 100 115 
-0.0774545 0.0078022 0.729326 78 98 113 
-0.0755461 0.00755163 0.729938 75 97 111 
-0.0742528 0.00744784 0.730959 82 102 115 
-0.0722477 0.00717305 0.731496 86 106 119 
-0.0692292 0.00665404 0.731336 93 109 119 
-0.0663188 0.00615969 0.731237 101 114 123 
-0.0628067 0.00551902 0.730713 104 117 126 
-0.0595052 0.00492747 0.730318 93 109 117 
-0.0567167 0.00445829 0.730263 86 102 110 
-0.0806839 0.0101908 0.731485 79 101 115 
-0.0784638 0.00986354 0.731899 73 97 111 
-0.0767577 0.00965996 0.732651 73 97 111 
-0.0746467 0.00935768 0.733125 86 106 119 
-0.0718278 0.0088827 0.733109 92 110 119 
-0.0681018 0.00818574 0.732462 95 113 122 
-0.0641822 0.0074397 0.731664 104 117 126 
-0.0605756 0.00676806 0.731063 99 115 123 
-0.0573817 0.00619538 0.730732 84 100 108 
-0.081481 0.0122166 0.733926 77 100 117 
-0.0792602 0.0118862 0.734341 75 98 115 
-0.0769416 0.011531 0.734683 82 104 118 
-0.0735098 0.0109014 0.734258 92 110 119 
-0.0704918 0.0103719 0.734101 94 112 121 
-0.0661639 0.00951846 0.733031 100 116 124 
-0.0620493 0.00871521 0.732087 107 118 127 
-0.0582477 0.00798713 0.731339 84 100 110 
-0.0818623 0.0141517 0.736099 76 99 118 
-0.0791328 0.0136921 0.736171 80 103 120 
-0.075698 0.0130561 0.735752 92 109 121 
-0.072474 0.0124709 0.735461 92 109 121 
-0.0678402 0.0115331 0.734188 98 116 123 
-0.0632184 0.0105957 0.7329 106 119 128 
-0.0590121 0.00975949 0.731877 84 100 110 
-0.0843604 0.0164064 0.737786 78 99 118 
-0.0814236 0.0158912 0.737726 84 105 122 
-0.0777827 0.0151979 0.737175 89 109 120 
-0.0744545 0.0145814 0.73682 90 110 121 
-0.0697173 0.0136086 0.735483 96 114 123 
-0.0647904 0.0125854 0.733991 106 119 128 
-0.060179 0.0116389 0.732693 83 99 109 
-0.0828993 0.0178975 0.738729 77 100 117 
-0.0802714 0.0174547 0.738873 87 109 121 
-0.0763317 0.0166776 0.738109 89 111 123 
-0.0716937 0.0157209 0.736846 92 112 123 
-0.0664619 0.0146102 0.735151 104 117 128 
-0.0616472 0.0136029 0.733718 111 124 135 
-0.0842719 0.0198868 0.739662 75 101 117 
-0.0814391 0.0193877 0.739671 87 109 121 
-0.0778022 0.018681 0.739119 89 111 123 
-0.0731628 0.0177148 0.737861 92 112 123 
-0.0678289 0.0165671 0.736101 104 117 126 
-0.0628116 0.0154979 0.734532 108 121 130 
-0.0874668 0.022126 0.739888 70 92 114 
-0.0847291 0.0216482 0.739975 72 100 117 
-0.0819973 0.0211706 0.740055 87 109 123 
-0.0785626 0.0205096 0.739644 89 111 125 
-0.0740241 0.0195602 0.738459 92 112 123 
-0.0686902 0.0184013 0.736702 102 115 124 
-0.063572 0.0172954 0.735067 107 120 129 
-0.0877206 0.0238427 0.740061 72 95 114 
-0.0849829 0.0233604 0.74015 67 94 116 
-0.0820481 0.0228253 0.740094 87 108 127 
-0.0787151 0.0221845 0.739753 89 111 125 
-0.0737733 0.0211199 0.738292 94 111 123 
-0.0682395 0.0198969 0.736397 102 115 126 
-0.0633246 0.0188333 0.734903 106 119 130 
-0.0880756 0.0255888 0.740303 74 95 114 
-0.085642 0.0251824 0.7406 67 94 116 
-0.0831118 0.0247493 0.740822 69 91 115 
-0.0795752 0.0240489 0.740346 84 106 130 
-0.0727147 0.0224658 0.73757 92 109 123 
-0.0672848 0.0212578 0.735744 101 114 125 
-0.089953 0.0275052 0.739625 71 92 109 
-0.0880237 0.0272301 0.74027 71 92 109 
-0.0865033 0.0270632 0.741186 68 93 116 
-0.0839719 0.0266262 0.741411 66 91 114 
-0.0658268 0.0224802 0.734744 95 110 123 
-0.0878702 0.0288452 0.740168 69 86 102 
-0.0862483 0.0286497 0.741016 67 92 113 
-0.0849323 0.0285362 0.742068 68 93 116 
-0.0872089 0.0303233 0.739724 128 137 149 
-0.0860947 0.030264 0.740915 82 101 119 
-0.0846775 0.0301221 0.741899 67 94 116 
-0.0682504 0.0263658 0.736429 78 101 118 
-0.0787696 0.0306442 0.741751 70 97 119 
-0.071725 0.0289454 0.738834 76 102 120 
-0.0791209 0.0323893 0.741998 70 95 118 
-0.0748947 0.0314603 0.741028 76 102 120 
-0.0758491 0.0333701 0.741693 80 102 124 
-0.0755962 0.0349436 0.741524 83 106 125 
-0.0723849 0.0342838 0.741241 73 96 115 
-0.0956918 0.00793934 0.773225 85 107 121 
-0.0943952 0.00698614 0.772957 85 105 120 
-0.0937166 0.00928514 0.773084 83 103 118 
-0.0939091 0.00297244 0.771925 58 88 109 
-0.0931804 0.00556134 0.772285 84 105 122 
-0.0924374 0.00823914 0.772734 81 102 119 
-0.091714 0.0108172 0.773109 77 98 117 
-0.0927353 0.00126026 0.771014 54 87 112 
-0.0920101 0.00385254 0.77137 69 94 115 
-0.0912212 0.00681574 0.772059 74 99 120 
-0.0904355 0.00977254 0.772757 77 100 119 
-0.0915212 -0.000265043 0.770266 55 86 111 
-0.0907998 0.00233032 0.770619 65 92 114 
-0.0899994 0.00539094 0.771385 66 93 115 
-0.0891533 0.00872684 0.772405 73 98 119 
-0.0883923 0.0115859 0.773029 80 103 122 
-0.0902358 -0.00141394 0.769841 55 87 109 
-0.0895349 0.00108945 0.77011 61 91 114 
-0.088772 0.00396464 0.770712 63 93 116 
-0.0879478 0.00720994 0.771647 62 89 111 
-0.0871274 0.0104479 0.772594 80 106 124 
-0.0863585 0.0133972 0.773306 81 107 125 
-0.0889303 -0.00246943 0.769498 50 83 108 
-0.0882494 -5.82431e-05 0.769684 56 90 112 
-0.087539 0.00253684 0.770039 56 90 112 
-0.0867363 0.00569134 0.77089 54 88 110 
-0.0858901 0.00912084 0.771996 56 88 108 
-0.0850477 0.0125424 0.773114 80 112 132 
-0.0882218 -0.00547022 0.769379 48 81 108 
-0.087574 -0.00324198 0.769396 48 84 110 
-0.086944 -0.00111246 0.769339 56 90 112 
-0.0862534 0.00139057 0.769611 56 90 112 
-0.0854876 0.00435964 0.770297 53 86 111 
-0.0846785 0.00760424 0.771237 54 87 112 
-0.0838424 0.0110295 0.77235 65 98 123 
-0.0830408 0.0142593 0.773312 84 114 133 
-0.0862155 -0.0040151 0.769295 50 83 110 
-0.0855732 -0.00178945 0.769317 55 88 115 
-0.0848869 0.000715218 0.769588 55 88 113 
-0.0841878 0.00330914 0.769948 53 87 109 
-0.0834304 0.00627444 0.770641 49 82 107 
-0.0826611 0.00932704 0.771425 58 91 116 
-0.0818197 0.0128421 0.772628 69 100 125 
-0.0810275 0.016068 0.773597 66 98 120 
-0.0848855 -0.00497822 0.769034 50 83 108 
-0.0842465 -0.00275074 0.769053 55 88 113 
-0.0835642 -0.000243933 0.769322 83 117 137 
-0.0828543 0.00244655 0.769761 56 88 108 
-0.0821473 0.00513144 0.770208 50 83 108 
-0.0814281 0.00790474 0.770745 53 86 111 
-0.080608 0.0113295 0.771863 62 95 122 
-0.079777 0.0148403 0.773074 64 95 122 
-0.0835975 -0.00622673 0.768531 54 87 112 
-0.0829317 -0.00380748 0.76871 60 93 118 
-0.0822236 -0.00110933 0.769138 76 108 126 
-0.081533 0.0014888 0.769494 81 109 124 
-0.0808304 0.00417594 0.769939 53 83 104 
-0.08016 0.00666914 0.770229 54 84 105 
-0.0793754 0.00990934 0.77118 53 86 113 
-0.0785509 0.0134236 0.772388 58 91 118 
-0.0822901 -0.00738149 0.768109 53 87 109 
-0.0816427 -0.00505471 0.768205 69 103 125 
-0.0809241 -0.00225929 0.768712 70 101 117 
-0.0802086 0.000530277 0.769227 83 109 125 
-0.0795106 0.00321964 0.76967 77 103 119 
-0.0788442 0.00571504 0.769958 55 81 97 
-0.0780942 0.00876974 0.770744 53 84 109 
-0.0773192 0.0120054 0.771703 57 90 117 
-0.0810368 -0.00891734 0.767366 50 84 106 
-0.0803345 -0.00620836 0.767781 63 97 119 
-0.0796206 -0.00341032 0.768286 62 90 107 
-0.0789098 -0.000618193 0.768798 84 108 122 
-0.0782018 0.00216817 0.76932 76 103 116 
-0.0775536 0.00457154 0.769524 81 108 121 
-0.0768513 0.00734664 0.770063 52 84 106 
-0.0761239 0.0103037 0.770773 57 90 117 
-0.0797488 -0.0102647 0.766785 83 109 125 
-0.0790507 -0.00755293 0.767197 62 88 104 
-0.0783271 -0.00465724 0.767779 73 99 115 
-0.0776208 -0.00186231 0.76829 76 100 114 
-0.0769314 0.000832217 0.768727 72 96 110 
-0.0762727 0.00333254 0.76901 60 88 103 
-0.0755887 0.00601624 0.769464 56 86 107 
-0.0748801 0.00888234 0.77009 55 87 109 
-0.0784695 -0.0117086 0.766124 75 102 113 
-0.0777338 -0.00870888 0.766775 73 100 111 
-0.0770151 -0.00581054 0.767355 73 97 111 
-0.0763273 -0.00310773 0.767781 76 100 114 
-0.0756696 -0.000599553 0.768054 75 99 113 
-0.0750692 0.00152593 0.768008 58 86 103 
-0.0743755 0.00430744 0.76854 52 82 103 
-0.0736578 0.00727124 0.769243 66 89 106 
-0.077905 -0.0160679 0.764906 84 106 116 
-0.0771848 -0.013154 0.765464 75 97 107 
-0.0764676 -0.0102462 0.766031 77 99 109 
-0.0758489 -0.00800888 0.766042 72 94 104 
-0.0752053 -0.00558618 0.766222 77 101 113 
-0.0744831 -0.00260057 0.766895 72 96 108 
-0.0738713 -0.000377203 0.766926 55 80 101 
-0.0731685 0.00250237 0.767535 50 73 90 
-0.0724687 0.00537574 0.768153 95 113 122 
-0.0766235 -0.0176133 0.76417 85 103 112 
-0.0759484 -0.0149819 0.764484 70 88 97 
-0.0752491 -0.0121655 0.764967 80 98 107 
-0.0746463 -0.0100198 0.764893 90 106 114 
-0.0739656 -0.00730909 0.765311 72 94 104 
-0.0733937 -0.00536138 0.765088 65 87 97 
-0.0727707 -0.00303888 0.765195 89 111 125 
-0.0720845 -0.000248773 0.765716 102 115 124 
-0.0713232 0.00310104 0.766736 96 113 125 
-0.0760099 -0.0218002 0.763132 88 104 112 
-0.0753759 -0.0194468 0.763195 90 106 114 
-0.0747044 -0.0168119 0.763505 85 98 107 
-0.0740488 -0.0142775 0.763742 99 112 121 
-0.0734219 -0.0119381 0.763826 90 102 108 
-0.0728103 -0.0096982 0.763835 78 95 107 
-0.0722526 -0.00784144 0.763526 64 81 93 
-0.0715288 -0.00475776 0.764278 95 110 123 
-0.0709366 -0.0026255 0.764225 100 112 118 
-0.0701423 0.00101216 0.765485 93 105 111 
-0.0747254 -0.0234476 0.762322 93 107 113 
-0.0740944 -0.0210913 0.762381 92 106 112 
-0.0734527 -0.018644 0.762527 94 108 114 
-0.0728004 -0.0161061 0.76276 101 115 121 
-0.0721635 -0.0136684 0.762921 80 91 102 
-0.0715418 -0.0113305 0.763007 77 92 107 
-0.070935 -0.00909186 0.763019 77 92 107 
-0.0704062 -0.00742541 0.76255 97 112 125 
-0.06969 -0.00434335 0.763305 100 112 118 
-0.0688771 -0.000512833 0.764725 90 102 108 
-0.0734214 -0.0250011 0.761592 91 105 111 
-0.0728192 -0.0228331 0.761488 92 106 112 
-0.0722061 -0.0205736 0.76147 93 109 119 
-0.0715698 -0.0181276 0.761619 71 87 97 
-0.0709359 -0.0156863 0.761775 72 87 104 
-0.0703043 -0.0132497 0.761938 74 91 107 
-0.0697 -0.0110077 0.761946 74 91 107 
-0.0690606 -0.00848559 0.762204 80 97 113 
-0.0683376 -0.00530626 0.763038 92 103 114 
-0.0721238 -0.0266521 0.760783 89 105 115 
-0.0715367 -0.024577 0.760596 95 112 124 
-0.0709389 -0.0224099 0.760494 64 86 108 
-0.0703181 -0.0200559 0.760559 59 81 103 
-0.0696996 -0.0177064 0.760631 60 81 98 
-0.0690586 -0.0151711 0.76087 80 102 116 
-0.0684325 -0.0127359 0.761036 68 90 104 
-0.0677601 -0.00992604 0.761533 65 86 103 
-0.0670061 -0.00645938 0.762609 107 118 127 
-0.0708072 -0.028209 0.760055 90 108 117 
-0.0702223 -0.0261312 0.759865 78 100 114 
-0.0696516 -0.0241527 0.7596 54 77 94 
-0.0690704 -0.0220819 0.75942 85 108 125 
-0.0684666 -0.0198243 0.759407 99 119 134 
-0.0678409 -0.0173803 0.759561 78 100 114 
-0.0672176 -0.0149412 0.759722 86 108 122 
-0.0665014 -0.0117476 0.760539 56 80 94 
-0.065706 -0.0078978 0.761936 114 125 136 
-0.0694722 -0.0296715 0.759407 78 96 105 
-0.0689019 -0.0276871 0.759134 70 94 108 
-0.0683452 -0.0258017 0.758787 87 107 120 
-0.0677901 -0.0239193 0.758443 99 119 132 
-0.0672007 -0.0217538 0.758346 97 113 123 
-0.0665899 -0.0194017 0.758415 71 93 105 
-0.0659929 -0.0171491 0.75841 85 107 119 
-0.0652582 -0.0137611 0.759385 84 108 120 
-0.0644233 -0.00952744 0.761102 102 117 134 
-0.0687374 -0.0334143 0.758802 73 93 108 
-0.0681197 -0.0310396 0.75884 64 84 99 
-0.0675634 -0.0291488 0.758485 88 105 117 
-0.0670086 -0.0272611 0.758134 94 112 119 
-0.066467 -0.025472 0.757708 88 106 113 
-0.0659035 -0.0234946 0.757446 73 94 102 
-0.0653186 -0.02133 0.757351 72 94 104 
-0.0647242 -0.0190741 0.757342 68 90 100 
-0.0639837 -0.015587 0.758393 89 116 127 
-0.0631453 -0.0112537 0.760187 78 100 114 
-0.0681464 -0.038421 0.757182 73 95 109 
-0.0673999 -0.0349788 0.75808 73 95 107 
-0.066762 -0.0324091 0.758273 84 106 118 
-0.0662076 -0.0305161 0.757916 98 114 122 
-0.0656663 -0.028722 0.757483 88 108 119 
-0.0651263 -0.0269306 0.757054 66 86 97 
-0.0645764 -0.0250464 0.756709 73 95 109 
-0.0640053 -0.0229744 0.75653 95 117 129 
-0.063436 -0.0209061 0.756356 66 88 100 
-0.0627125 -0.0175099 0.757322 75 102 113 
-0.0618933 -0.0132668 0.759029 74 101 114 
-0.066947 -0.0412447 0.755437 69 92 109 
-0.0661021 -0.0369303 0.757041 62 85 102 
-0.0654104 -0.0338762 0.757628 94 115 123 
-0.0648354 -0.0317888 0.757427 98 114 122 
-0.0642845 -0.0298967 0.757071 66 87 104 
-0.0637576 -0.0281992 0.75656 67 88 105 
-0.0632208 -0.0264086 0.756133 70 93 112 
-0.0626963 -0.0247161 0.755629 85 109 123 
-0.0620854 -0.0222637 0.755775 78 102 116 
-0.0614005 -0.0191497 0.756494 72 96 108 
-0.0606001 -0.0149972 0.758117 85 109 123 
-0.0657234 -0.0439754 0.753772 78 95 109 
-0.0648073 -0.0389803 0.755925 80 101 118 
-0.0640756 -0.0355372 0.756825 95 114 118 
-0.0634585 -0.0330627 0.756939 88 108 119 
-0.0628987 -0.0310727 0.756661 62 87 108 
-0.0623733 -0.0293734 0.756148 63 88 109 
-0.0618708 -0.0278679 0.755477 67 92 115 
-0.0613154 -0.0258867 0.755212 68 93 116 
-0.0607187 -0.0235272 0.755275 89 115 131 
-0.0600286 -0.0203151 0.756073 77 101 113 
-0.0645099 -0.0469026 0.751951 111 126 139 
-0.0635696 -0.0416114 0.754334 100 115 128 
-0.0627558 -0.0373927 0.755863 72 88 98 
-0.0620768 -0.0343378 0.756452 60 87 109 
-0.0614978 -0.0321536 0.756331 63 90 112 
-0.0609741 -0.0304527 0.755816 65 95 118 
-0.0604623 -0.02885 0.755224 63 93 114 
-0.0598988 -0.0267715 0.755038 78 108 129 
-0.0593056 -0.0244102 0.755099 74 95 114 
-0.058611 -0.0211003 0.755975 94 114 129 
-0.0633261 -0.0502201 0.749816 98 114 124 
-0.0623523 -0.0445353 0.752508 104 120 130 
-0.0614708 -0.0396358 0.754586 70 87 99 
-0.0607327 -0.0359991 0.755647 60 87 109 
-0.0601037 -0.0333317 0.755922 62 89 111 
-0.0595504 -0.0313412 0.755644 84 116 138 
-0.05904 -0.0297371 0.755051 59 89 108 
-0.0584896 -0.0277526 0.754783 72 102 121 
-0.0579001 -0.0253894 0.754842 73 92 110 
-0.0572012 -0.0219814 0.755797 90 107 123 
-0.0611113 -0.0473663 0.750763 97 114 126 
-0.0601554 -0.0416886 0.753468 66 86 99 
-0.0593614 -0.0374697 0.755002 59 82 99 
-0.0587055 -0.0345108 0.755513 80 103 120 
-0.0581443 -0.0324223 0.755313 82 109 131 
-0.0576152 -0.030625 0.754879 70 98 115 
-0.0570674 -0.0286389 0.754609 66 94 111 
-0.0564714 -0.0261782 0.754747 79 99 114 
-0.0558185 -0.0231496 0.755377 89 106 120 
-0.0597962 -0.0496208 0.749494 75 96 113 
-0.0588108 -0.0435508 0.752511 100 121 129 
-0.0579942 -0.0390382 0.754278 103 120 125 
-0.057323 -0.0358836 0.754945 106 123 128 
-0.0567544 -0.0336966 0.754823 67 89 103 
-0.0562073 -0.0317054 0.754546 86 109 126 
-0.0556619 -0.0297175 0.754275 83 106 123 
-0.0550794 -0.0273503 0.75433 97 114 130 
-0.0584016 -0.0512007 0.74878 70 96 114 
-0.0574091 -0.0449321 0.751951 105 123 130 
-0.0566013 -0.0404154 0.753714 105 119 125 
-0.0559353 -0.0372577 0.754378 90 104 110 
-0.0553983 -0.0353568 0.754014 66 88 100 
-0.0548629 -0.0334589 0.753654 78 102 116 
-0.0543004 -0.0312764 0.753539 86 110 124 
-0.053702 -0.0287149 0.753752 95 110 127 
-0.0579295 -0.0584909 0.745397 64 90 108 
-0.0569912 -0.0526856 0.748146 90 116 134 
-0.05606 -0.0468948 0.750916 108 126 133 
-0.055251 -0.0422767 0.752754 91 104 113 
-0.0545804 -0.0390188 0.753494 85 98 107 
-0.0540357 -0.0370188 0.753206 89 109 120 
-0.0534739 -0.03483 0.753083 68 90 102 
-0.0529697 -0.0332208 0.752484 92 114 126 
-0.0523838 -0.0307515 0.752612 107 122 137 
-0.0564633 -0.0595944 0.745083 66 94 111 
-0.0555939 -0.0543658 0.747355 79 107 124 
-0.0546839 -0.0486663 0.750041 74 94 107 
-0.0538929 -0.04414 0.751795 106 121 134 
-0.0532366 -0.0409747 0.752451 88 103 116 
-0.052657 -0.0385864 0.752478 90 110 123 
-0.0521433 -0.0368756 0.751952 99 121 131 
-0.0516578 -0.0354555 0.751189 84 106 116 
-0.0510746 -0.0329823 0.751312 90 110 121 
-0.0556433 -0.0637082 0.744326 84 117 132 
-0.0550025 -0.060796 0.744691 63 94 110 
-0.0542081 -0.0562417 0.746407 68 99 115 
-0.0533462 -0.0509237 0.748771 111 130 148 
-0.0525723 -0.0464887 0.750441 96 113 127 
-0.0519116 -0.0432222 0.751171 101 118 132 
-0.0513345 -0.0408302 0.751193 88 108 121 
-0.0508127 -0.0390199 0.750743 100 120 131 
-0.0503186 -0.0375006 0.750055 99 119 130 
-0.0497297 -0.0349278 0.750255 72 94 106 
-0.0541009 -0.0641352 0.744565 81 111 130 
-0.0534743 -0.0613187 0.74485 61 89 106 
-0.052761 -0.0575376 0.745933 69 97 114 
-0.0519809 -0.0529901 0.747661 85 104 124 
-0.0512327 -0.0487435 0.749167 85 100 115 
-0.050568 -0.045376 0.749971 106 121 136 
-0.049985 -0.0428837 0.750069 109 124 137 
-0.04943 -0.0406851 0.749934 103 121 130 
-0.048894 -0.0386827 0.749645 99 117 126 
-0.0483934 -0.0370677 0.749039 69 92 109 
-0.0530401 -0.0658258 0.745779 68 88 110 
-0.0525406 -0.0643675 0.744961 82 107 128 
-0.0519367 -0.0617443 0.745088 68 96 111 
-0.051283 -0.0585436 0.745697 68 96 111 
-0.0505896 -0.0548649 0.74671 66 87 106 
-0.0499004 -0.0511945 0.747736 80 97 109 
-0.0492321 -0.0477256 0.748615 102 119 131 
-0.0486182 -0.0448432 0.749026 107 120 129 
-0.0480572 -0.0425449 0.748967 103 119 127 
-0.0475148 -0.0404433 0.748754 105 121 129 
-0.0469823 -0.0384413 0.748466 69 92 109 
-0.0509467 -0.0642098 0.74567 73 92 110 
-0.0503817 -0.0619753 0.745484 103 124 141 
-0.049768 -0.0591618 0.745776 67 88 105 
-0.0491488 -0.0562569 0.746156 68 89 106 
-0.0485158 -0.0531641 0.746703 105 120 133 
-0.0478695 -0.0498844 0.747418 105 120 133 
-0.0472513 -0.0469015 0.747905 108 121 130 
-0.0466684 -0.0443104 0.748081 77 92 107 
-0.0461362 -0.0423022 0.747785 88 103 118 
-0.0456056 -0.0402973 0.747493 97 119 141 
-0.0488111 -0.0620113 0.746036 101 122 139 
-0.0482436 -0.059683 0.745934 93 114 131 
-0.0476781 -0.057359 0.745839 102 122 135 
-0.0470906 -0.0547483 0.745988 105 122 136 
-0.0464736 -0.0517555 0.746461 96 113 127 
-0.0458597 -0.0487689 0.746944 85 100 113 
-0.0452725 -0.0460779 0.747196 71 88 104 
-0.0447343 -0.0439704 0.746976 76 93 109 
-0.0467025 -0.0600099 0.74625 111 130 148 
-0.0461644 -0.0579764 0.745918 111 128 140 
-0.045628 -0.0559461 0.74559 92 107 122 
-0.0450469 -0.053338 0.745744 104 119 134 
-0.0444376 -0.0503481 0.746223 76 91 108 
-0.0438389 -0.047461 0.746631 78 97 117 
-0.0432882 -0.0451583 0.746569 72 91 111 
-0.0446495 -0.0585941 0.745996 83 100 116 
-0.0441234 -0.0566598 0.745589 96 112 122 
-0.0435838 -0.0545346 0.745344 111 127 137 
-0.0429942 -0.0517356 0.745662 94 114 129 
-0.0424 -0.0488455 0.746067 65 94 120 
-0.0418232 -0.0461543 0.746322 60 89 115 
-0.043104 -0.0588229 0.74639 81 97 116 
-0.0426098 -0.0572767 0.745666 112 127 142 
-0.0420876 -0.0553443 0.745262 123 138 153 
-0.0415313 -0.0529307 0.74526 89 110 129 
-0.0409488 -0.0501347 0.745584 60 91 116 
-0.0410667 -0.057505 0.74606 106 122 143 
-0.0405613 -0.0557663 0.745498 97 113 134 
-0.0400227 -0.0535454 0.745336 71 91 113 
-0.0394724 -0.0511349 0.74534 63 93 116 
-0.0390348 -0.0561883 0.745733 79 97 122 
-0.0385129 -0.0541604 0.745412 79 89 115 
-0.0369891 -0.0545815 0.745647 80 88 114 
-0.0605837 -0.0538916 0.707674 82 97 114 
-0.060661 -0.0523926 0.707728 80 97 113 
-0.058595 -0.0526033 0.708118 81 97 116 
-0.0610492 -0.0508413 0.707988 85 95 111 
-0.0585685 -0.0511227 0.708103 83 98 113 
-0.0562996 -0.0513701 0.70835 80 100 115 
-0.0616444 -0.0492525 0.708385 88 98 112 
-0.0589559 -0.0495723 0.708364 87 99 113 
-0.0560665 -0.0499264 0.708197 85 100 113 
-0.0621352 -0.0476771 0.708714 92 104 118 
-0.0592394 -0.0480363 0.708556 88 100 114 
-0.0561433 -0.0484302 0.708251 88 103 116 
-0.0533637 -0.0487716 0.708147 89 104 117 
-0.0626256 -0.046098 0.709042 94 106 122 
-0.0599363 -0.0464268 0.709024 92 104 118 
-0.05622 -0.0469326 0.708306 91 103 117 
-0.0530283 -0.0473496 0.707924 91 103 117 
-0.0507702 -0.047607 0.708161 85 102 116 
-0.0646687 -0.0442456 0.710402 97 109 125 
-0.0617697 -0.0446149 0.710251 93 105 119 
-0.0572254 -0.0452716 0.708984 92 104 118 
-0.0538265 -0.0457304 0.708466 92 104 118 
-0.0504356 -0.0461889 0.707939 88 103 116 
-0.0486964 -0.0463597 0.70852 70 97 119 
-0.0607063 -0.0431668 0.711323 93 105 119 
-0.0560662 -0.0438508 0.70998 97 109 123 
-0.0514381 -0.0445344 0.708622 88 103 116 
-0.048465 -0.0449261 0.708367 82 103 120 
-0.0467289 -0.045099 0.708945 73 94 111 
-0.070287 -0.0400905 0.715947 94 107 118 
-0.0661438 -0.040692 0.714976 98 111 122 
-0.0596426 -0.0417184 0.712395 98 111 122 
-0.0541875 -0.0425594 0.710489 89 105 115 
-0.0493628 -0.0432891 0.708983 84 101 115 
-0.0466005 -0.043649 0.708863 83 100 114 
-0.0449695 -0.0438054 0.709508 62 93 118 
-0.0693087 -0.0386012 0.717103 98 111 120 
-0.0654806 -0.0391544 0.716335 101 114 123 
-0.0585787 -0.0402695 0.713468 90 103 112 
-0.0519014 -0.0413467 0.710716 90 103 112 
-0.0477011 -0.0419736 0.709621 86 99 108 
-0.071028 -0.0367596 0.71826 98 111 120 
-0.0682268 -0.0371301 0.718191 102 116 122 
-0.062658 -0.0380134 0.716235 92 104 110 
-0.0556685 -0.0391623 0.713284 93 105 111 
-0.0498248 -0.0401016 0.711079 85 98 107 
-0.0729518 -0.0348696 0.719554 98 111 120 
-0.0696336 -0.0353412 0.719143 102 116 122 
-0.0656044 -0.0359474 0.718236 93 105 111 
-0.0601499 -0.0368229 0.716339 94 106 112 
-0.0537889 -0.0378712 0.713794 84 98 104 
-0.0476498 -0.0388805 0.711368 81 96 111 
-0.0735352 -0.0332227 0.719949 100 113 122 
-0.0709363 -0.0335636 0.720025 101 115 121 
-0.0679323 -0.0339825 0.719817 99 111 117 
-0.0635004 -0.0346743 0.718624 94 106 112 
-0.0575449 -0.0356585 0.716367 92 104 110 
-0.0504823 -0.0368568 0.713319 83 96 105 
-0.0741179 -0.0315715 0.720343 99 115 123 
-0.0718268 -0.0318574 0.720629 101 115 121 
-0.0692321 -0.0322024 0.720701 104 116 122 
-0.0658235 -0.0327054 0.72021 94 106 112 
-0.060991 -0.033485 0.718729 93 105 111 
-0.0542312 -0.0346397 0.7159 85 97 103 
-0.0747 -0.0299163 0.720736 100 116 124 
-0.0725107 -0.0301855 0.721094 99 116 121 
-0.0702231 -0.0304746 0.721377 104 121 126 
-0.0671206 -0.0309239 0.721097 92 106 112 
-0.0630028 -0.0315732 0.72011 89 106 111 
-0.0570583 -0.0325827 0.717848 81 95 101 
-0.0503148 -0.0337518 0.715004 81 95 101 
-0.0775786 -0.027964 0.720833 86 106 117 
-0.0752815 -0.0282568 0.721129 100 116 124 
-0.0732969 -0.0284886 0.721627 101 114 123 
-0.0709055 -0.0288015 0.721843 106 119 128 
-0.0680071 -0.0292157 0.721705 87 101 107 
-0.0641954 -0.0298123 0.720931 89 106 111 
-0.0593728 -0.0306115 0.719444 84 98 104 
-0.0534424 -0.0316333 0.717168 78 92 98 
-0.0784691 -0.0262352 0.72143 84 106 118 
-0.0762736 -0.026511 0.721797 102 118 128 
-0.0738768 -0.0268277 0.722022 104 117 126 
-0.0714847 -0.0271443 0.72224 106 119 128 
-0.0684834 -0.0275841 0.722034 98 112 118 
-0.064876 -0.0281469 0.721402 94 106 112 
-0.0607674 -0.0288122 0.720408 88 100 106 
-0.0559563 -0.0296209 0.71891 85 97 103 
-0.0791529 -0.0245424 0.721889 78 102 114 
-0.0770591 -0.0248005 0.722327 99 117 126 
-0.0744561 -0.0251626 0.722415 106 119 128 
-0.0716535 -0.0255662 0.722358 107 120 129 
-0.0685501 -0.026032 0.722084 101 115 121 
-0.0652496 -0.0265392 0.721663 95 107 113 
-0.0618549 -0.027067 0.721161 90 102 108 
-0.0580611 -0.0276777 0.720369 86 98 104 
-0.0540733 -0.0283296 0.719424 83 95 101 
-0.0800417 -0.0228027 0.722484 77 101 115 
-0.0776384 -0.0231271 0.722719 95 115 126 
-0.0750346 -0.0234934 0.722809 106 119 128 
-0.071822 -0.023986 0.722476 107 120 129 
-0.0686167 -0.0244784 0.722134 104 118 124 
-0.0658269 -0.0248863 0.722063 96 106 113 
-0.0628394 -0.0253361 0.721843 92 104 110 
-0.0599603 -0.0257646 0.721686 87 99 105 
-0.0566814 -0.0262772 0.721239 85 97 103 
-0.0808268 -0.0210787 0.72301 75 99 113 
-0.0786278 -0.021364 0.723385 86 106 119 
-0.0756126 -0.02182 0.723202 103 119 127 
-0.0721949 -0.022361 0.722733 103 119 127 
-0.0687851 -0.0229018 0.722254 105 119 125 
-0.0661994 -0.0232718 0.722323 101 113 119 
-0.0637211 -0.0236203 0.722455 96 108 114 
-0.0612478 -0.0239686 0.722581 87 99 105 
-0.0584749 -0.0243806 0.72249 85 97 103 
-0.0816111 -0.0193494 0.723536 77 99 113 
-0.0797188 -0.0195731 0.72412 83 103 116 
-0.0761901 -0.0201423 0.723594 95 111 121 
-0.072465 -0.0207545 0.72292 102 118 128 
-0.0691574 -0.02128 0.722512 103 120 125 
-0.0667755 -0.021611 0.722722 100 114 120 
-0.0645001 -0.0219203 0.722996 94 108 114 
-0.062229 -0.0222294 0.723265 87 101 107 
-0.0596579 -0.0226031 0.723317 83 96 105 
-0.0566868 -0.0230629 0.723081 84 97 106 
-0.0826001 -0.0175711 0.724199 75 97 111 
-0.0802958 -0.0178848 0.72451 80 102 116 
-0.0776887 -0.0182638 0.724608 89 106 118 
-0.0739619 -0.0188831 0.723938 99 116 128 
-0.0703463 -0.0194802 0.723325 102 118 126 
-0.0679626 -0.019815 0.723539 98 114 122 
-0.0654818 -0.0201714 0.723677 92 108 116 
-0.0631077 -0.0205058 0.723878 85 102 107 
-0.0607382 -0.0208401 0.724074 82 98 106 
-0.0579684 -0.0212615 0.723981 81 97 105 
-0.0831772 -0.0158751 0.724586 75 97 111 
-0.0811799 -0.0161258 0.725105 80 102 116 
-0.0788787 -0.0164428 0.725414 87 104 116 
-0.0755596 -0.0169807 0.725024 98 115 127 
-0.0724525 -0.0174742 0.724763 100 116 126 
-0.0691484 -0.0180117 0.724355 99 115 125 
-0.0665642 -0.0183942 0.724426 95 111 121 
-0.0640871 -0.0187544 0.724561 86 102 112 
-0.0617162 -0.0190924 0.724759 81 97 107 
-0.0592488 -0.0194523 0.724881 81 97 107 
-0.0839591 -0.0141301 0.72511 75 97 111 
-0.082063 -0.0143611 0.7257 80 102 116 
-0.0798629 -0.0146592 0.72608 87 104 116 
-0.0770537 -0.0150913 0.72604 98 115 127 
-0.0739446 -0.0155904 0.725784 102 118 126 
-0.0707406 -0.0161115 0.725449 102 115 124 
-0.067849 -0.0165654 0.725315 97 110 119 
-0.0652684 -0.016952 0.725382 88 101 110 
-0.0626931 -0.0173384 0.725444 82 98 108 
-0.0603256 -0.01768 0.725639 79 95 105 
-0.0845348 -0.0124251 0.725496 77 99 113 
-0.0826378 -0.0126586 0.726088 78 100 114 
-0.0807438 -0.012892 0.726677 88 105 117 
-0.0781379 -0.0132836 0.726778 95 112 124 
-0.0752313 -0.013743 0.726664 105 118 127 
-0.0722294 -0.0142247 0.726472 104 116 122 
-0.0692342 -0.0147062 0.726272 99 111 117 
-0.0664487 -0.0151423 0.726204 90 104 110 
-0.063973 -0.0155103 0.726339 85 99 105 
-0.0614013 -0.0159008 0.726397 83 97 103 
-0.0852126 -0.0106931 0.72595 75 96 113 
-0.0833144 -0.010929 0.726545 77 99 113 
-0.081317 -0.0111877 0.727067 88 105 117 
-0.0789146 -0.0115378 0.727308 91 108 120 
-0.076313 -0.0119335 0.727404 102 113 122 
-0.0734115 -0.0123976 0.727286 106 118 122 
-0.0703132 -0.0129073 0.727019 97 109 113 
-0.0675262 -0.0133481 0.726954 93 105 111 
-0.0649478 -0.013743 0.727022 88 100 106 
-0.0622736 -0.0141606 0.727012 85 97 103 
-0.0858895 -0.00895631 0.726403 75 97 111 
-0.0838878 -0.0092178 0.726932 77 99 113 
-0.0818896 -0.00947917 0.727456 85 105 116 
-0.0795885 -0.00980984 0.727768 87 107 118 
-0.0769861 -0.0102098 0.727867 99 110 121 
-0.0741856 -0.0106558 0.72782 104 111 119 
-0.0712896 -0.0111247 0.727696 92 99 107 
-0.0686028 -0.0115472 0.727704 92 99 107 
-0.0658204 -0.0119926 0.727634 89 101 107 
-0.0629429 -0.0124609 0.727487 85 97 103 
-0.0862583 -0.00728505 0.726651 75 97 109 
