ply
format ascii 1.0
comment Created by CloudCompare v2.11 alpha (Anoia)
comment Created 20/2/20 下午10:32
obj_info Generated by CloudCompare!
element vertex 1120
property float x
property float y
property float z
property uchar red
property uchar green
property uchar blue
end_header
-0.0148728 -0.061307 0.626169 111 98 102 
-0.013276 -0.0610676 0.626057 110 97 101 
-0.0118064 -0.0608357 0.625459 105 94 98 
-0.0103355 -0.0606037 0.62486 105 94 98 
-0.00908096 -0.0603838 0.623409 104 93 97 
-0.00788315 -0.0601667 0.621713 105 94 98 
-0.00674053 -0.0599521 0.619773 100 89 93 
-0.00556053 -0.0597348 0.617953 93 82 86 
-0.00437394 -0.0595166 0.616133 92 83 86 
-0.00312118 -0.0592943 0.614556 95 86 89 
-0.0263562 -0.0646076 0.625061 110 99 103 
-0.0247166 -0.0643637 0.625069 109 98 102 
-0.0230449 -0.0641177 0.625199 110 99 103 
-0.0214082 -0.0638743 0.625207 110 99 103 
-0.0198056 -0.0636335 0.625095 108 97 103 
-0.0182037 -0.0633928 0.624982 108 97 103 
-0.0166673 -0.0631567 0.624626 107 96 100 
-0.0151306 -0.0629207 0.624271 107 96 100 
-0.0136573 -0.0626889 0.623671 108 97 101 
-0.0122142 -0.0624591 0.62295 104 93 97 
-0.010832 -0.0622332 0.621986 107 96 100 
-0.00954004 -0.0620129 0.620655 94 83 87 
-0.00824361 -0.0617921 0.619324 89 76 80 
-0.0069427 -0.0615706 0.617992 91 78 82 
-0.00560707 -0.0613465 0.616781 90 79 83 
-0.0228874 -0.0657089 0.624881 108 99 102 
-0.0212833 -0.0654675 0.624768 108 99 102 
-0.0197128 -0.0652287 0.624534 106 97 100 
-0.0181424 -0.0649901 0.6243 104 95 98 
-0.016637 -0.0647565 0.623822 104 93 97 
-0.0150666 -0.064518 0.623588 104 93 97 
-0.0136237 -0.0642891 0.622867 101 90 94 
-0.012242 -0.0640647 0.621902 101 90 94 
-0.01092 -0.0638446 0.620693 96 85 89 
-0.00956295 -0.0636217 0.619606 81 70 76 
-0.00823332 -0.0634006 0.618396 84 73 77 
-0.0324995 -0.0697971 0.616062 158 158 162 
-0.0322153 -0.0688862 0.615068 161 161 165 
-0.031834 -0.067951 0.614153 159 159 163 
-0.0314527 -0.0670157 0.613238 159 153 159 
-0.0342186 -0.0699496 0.617161 162 162 166 
-0.0339347 -0.0690397 0.616168 158 158 162 
-0.0336507 -0.06813 0.615175 162 161 165 
-0.0332698 -0.0671958 0.614261 159 158 162 
-0.0328889 -0.0662615 0.613347 158 152 158 
-0.0324109 -0.0653018 0.61251 157 148 155 
-0.0319328 -0.0643417 0.611673 158 149 156 
-0.0313572 -0.0633556 0.610913 160 149 157 
-0.0358446 -0.0692423 0.617106 162 162 166 
-0.035561 -0.0683339 0.616115 161 160 164 
-0.0352774 -0.0674258 0.615123 165 159 165 
-0.0349939 -0.0665179 0.614133 162 156 162 
-0.0345168 -0.0655599 0.613298 157 148 155 
-0.0341364 -0.0646267 0.612386 158 149 156 
-0.033562 -0.0636424 0.611628 159 150 157 
-0.0330843 -0.0626829 0.610792 160 151 158 
-0.0324125 -0.0616712 0.610111 164 153 161 
-0.0317402 -0.0606583 0.609428 165 154 162 
-0.0310674 -0.0596443 0.608744 167 156 164 
-0.0303943 -0.058629 0.608058 168 157 165 
-0.0218812 -0.047903 0.602478 143 137 143 
-0.037468 -0.068538 0.617049 160 160 164 
-0.0371847 -0.0676311 0.616059 162 161 165 
-0.0369015 -0.0667245 0.61507 165 159 165 
-0.0366184 -0.0658181 0.614081 159 153 159 
-0.036142 -0.0648612 0.613248 155 149 155 
-0.0357621 -0.0639294 0.612337 158 149 156 
-0.0351886 -0.062946 0.611581 159 150 157 
-0.0347117 -0.0619877 0.610747 160 151 158 
-0.0340409 -0.0609768 0.610068 163 154 161 
-0.0333695 -0.0599647 0.609387 163 154 161 
-0.0326979 -0.0589514 0.608705 167 158 165 
-0.0320258 -0.0579369 0.608021 167 158 165 
-0.0313534 -0.0569212 0.607336 172 163 170 
-0.0306804 -0.0559044 0.60665 174 163 169 
-0.0301043 -0.0549134 0.605886 174 163 169 
-0.029528 -0.0539216 0.605121 176 165 171 
-0.0260497 -0.0496099 0.602956 174 165 170 
-0.0243984 -0.0483018 0.603012 159 150 155 
-0.0210869 -0.0465071 0.60434 145 136 143 
-0.0390886 -0.0678366 0.616991 162 161 163 
-0.0388057 -0.0669312 0.616003 163 159 164 
-0.0385229 -0.0660261 0.615015 164 158 162 
-0.0382401 -0.0651212 0.614027 158 152 156 
-0.0377645 -0.0641654 0.613196 157 148 153 
-0.0373852 -0.063235 0.612286 158 149 154 
-0.0368125 -0.0622526 0.611533 160 151 156 
-0.0363363 -0.0612954 0.6107 162 151 157 
-0.0356665 -0.0602853 0.610023 164 153 159 
-0.035093 -0.0593004 0.609267 164 153 159 
-0.0344225 -0.0582881 0.608586 168 157 163 
-0.0337515 -0.0572746 0.607905 168 157 163 
-0.0330801 -0.0562598 0.607222 173 162 168 
-0.0324084 -0.055244 0.606538 174 163 169 
-0.0317361 -0.0542268 0.605853 174 163 169 
-0.0311606 -0.053236 0.605089 176 165 171 
-0.0306819 -0.0522719 0.604249 174 165 170 
-0.0297171 -0.0511683 0.603788 175 166 171 
-0.0290433 -0.0501463 0.603097 173 164 169 
-0.0271041 -0.048757 0.603387 172 163 168 
-0.0252605 -0.0473902 0.603596 161 152 157 
-0.0407066 -0.0671381 0.616931 108 99 106 
-0.0404241 -0.0662342 0.615944 172 161 165 
-0.0400455 -0.0653052 0.615036 167 159 158 
-0.039763 -0.0644017 0.61405 161 153 152 
-0.0393843 -0.0634726 0.613142 157 148 153 
-0.0389091 -0.0625176 0.612313 160 149 155 
-0.0384338 -0.061562 0.611483 162 151 157 
-0.0379583 -0.060606 0.610652 162 151 157 
-0.0373861 -0.0596231 0.609898 165 154 160 
-0.0367169 -0.0586128 0.609222 165 154 160 
-0.036144 -0.057628 0.608466 168 157 163 
-0.0354742 -0.0566155 0.607787 168 157 163 
-0.0347072 -0.0555746 0.607183 173 162 168 
-0.0341333 -0.0545868 0.606424 175 164 170 
-0.0334622 -0.0535706 0.605741 175 164 170 
-0.0328875 -0.0525809 0.60498 176 165 171 
-0.0321187 -0.0515347 0.60437 175 166 171 
-0.0309613 -0.050375 0.604063 174 165 170 
-0.0301912 -0.049325 0.603449 172 163 168 
-0.0279636 -0.0478482 0.603969 166 155 161 
-0.0261226 -0.0464787 0.60418 153 142 148 
-0.0422259 -0.0664173 0.616948 118 110 109 
-0.0418478 -0.0654894 0.616042 169 158 162 
-0.0416617 -0.0646125 0.614978 166 158 157 
-0.0412835 -0.0636847 0.614072 161 153 152 
-0.0410014 -0.0627827 0.613087 157 148 153 
-0.040527 -0.0618288 0.612259 160 149 155 
-0.0400524 -0.0608744 0.61143 162 151 157 
-0.0394813 -0.0598931 0.61068 164 153 159 
-0.0389099 -0.058911 0.609928 165 154 160 
-0.0382417 -0.0579013 0.609253 166 155 161 
-0.0376697 -0.0569173 0.608499 168 157 163 
-0.0369043 -0.0558783 0.607899 168 157 163 
-0.0362349 -0.054865 0.60722 173 162 168 
-0.0356618 -0.0538779 0.606463 174 165 170 
-0.0350885 -0.05289 0.605704 174 165 170 
-0.0345148 -0.0519013 0.604945 175 166 171 
-0.0336503 -0.0508277 0.604414 174 165 170 
-0.0328822 -0.0497803 0.603804 173 164 169 
-0.0311443 -0.048448 0.603953 172 163 168 
-0.028823 -0.0469396 0.604551 166 155 161 
-0.0268875 -0.0455387 0.604839 146 135 141 
-0.043743 -0.0656992 0.616964 151 142 145 
-0.0434611 -0.064798 0.61598 160 151 154 
-0.0431794 -0.063897 0.614996 165 156 159 
-0.0428976 -0.0629962 0.614013 161 152 155 
-0.0425199 -0.0620697 0.613108 157 148 153 
-0.0421422 -0.061143 0.612203 160 149 155 
-0.0415722 -0.0601633 0.611455 162 151 157 
-0.0410019 -0.0591828 0.610706 164 153 159 
-0.0403351 -0.0581747 0.610034 165 154 160 
-0.0398604 -0.0572193 0.609205 167 156 162 
-0.039193 -0.0562092 0.60853 168 157 163 
-0.038525 -0.0551979 0.607855 168 157 163 
-0.0379532 -0.0542128 0.6071 172 161 167 
-0.0373811 -0.0532269 0.606345 173 164 169 
-0.0369051 -0.052268 0.605512 175 166 171 
-0.0363324 -0.0512805 0.604755 175 166 171 
-0.0351796 -0.0501232 0.604456 174 165 170 
-0.0343159 -0.049048 0.603925 171 162 167 
-0.0318068 -0.0474861 0.604685 170 161 166 
-0.0285208 -0.0456868 0.606045 162 151 157 
-0.0265874 -0.0442809 0.606332 147 136 142 
-0.0254275 -0.0431016 0.606009 119 108 116 
-0.0453532 -0.0650091 0.616899 140 134 136 
-0.0451674 -0.0641351 0.615837 159 153 155 
-0.0448861 -0.0632358 0.614855 165 156 159 
-0.0446048 -0.0623367 0.613873 161 152 155 
-0.0442277 -0.0614116 0.61297 157 148 153 
-0.0437547 -0.06046 0.612146 160 149 155 
-0.0430897 -0.0594548 0.611478 162 151 157 
-0.0425202 -0.0584751 0.610731 164 153 159 
-0.0419504 -0.0574945 0.609982 165 154 160 
-0.0413804 -0.0565131 0.609233 167 156 162 
-0.04081 -0.0555309 0.608482 168 157 163 
-0.0403356 -0.0545753 0.607653 168 159 164 
-0.0397647 -0.0535916 0.606901 171 162 167 
-0.0392899 -0.0526348 0.606071 173 164 169 
-0.0388148 -0.0516775 0.60524 174 165 170 
-0.0383396 -0.0507197 0.604409 174 165 170 
-0.0369959 -0.0495063 0.604266 173 164 169 
-0.0357476 -0.0483178 0.604043 170 161 166 
-0.0327597 -0.0466096 0.605189 166 160 164 
-0.028609 -0.0445454 0.607236 161 150 156 
-0.0270647 -0.0432514 0.607221 140 129 135 
-0.0260028 -0.0420991 0.606822 115 104 112 
-0.0471517 -0.0643734 0.616673 135 129 133 
-0.0469662 -0.0635014 0.615613 147 141 145 
-0.0466854 -0.062604 0.614632 178 167 171 
-0.0464046 -0.0617067 0.613652 162 151 155 
-0.0459325 -0.0607569 0.61283 160 149 153 
-0.0454603 -0.0598066 0.612008 160 149 155 
-0.0447963 -0.0588023 0.611342 162 151 157 
-0.0442277 -0.0578237 0.610597 164 153 159 
-0.0437548 -0.0568714 0.609772 165 154 160 
-0.0430898 -0.0558641 0.609103 167 156 162 
-0.0426164 -0.0549105 0.608277 168 157 163 
-0.0420468 -0.0539287 0.607528 171 162 167 
-0.041669 -0.0530017 0.606623 172 163 168 
-0.041195 -0.0520466 0.605795 174 165 170 
-0.0407209 -0.0510909 0.604966 172 163 168 
-0.0402465 -0.0501348 0.604137 171 162 167 
-0.0388089 -0.048893 0.604075 168 162 166 
-0.0376591 -0.0477332 0.603778 166 160 164 
-0.0337121 -0.0457335 0.605692 151 145 149 
-0.0293751 -0.0436045 0.607897 141 132 139 
-0.0277364 -0.0422789 0.607958 114 105 112 
-0.0267722 -0.0411543 0.607484 118 107 115 
-0.0490422 -0.0637672 0.616364 137 128 133 
-0.0488571 -0.0628974 0.615306 138 129 134 
-0.0485767 -0.0620019 0.614328 151 140 146 
-0.0481056 -0.0610539 0.613508 173 162 166 
-0.0477298 -0.060132 0.612609 164 153 157 
-0.0471628 -0.0591564 0.611868 162 151 157 
-0.0465 -0.0581531 0.611205 162 151 157 
-0.0459324 -0.0571757 0.610461 162 151 157 
-0.0453645 -0.0561974 0.609717 165 154 160 
-0.0448921 -0.0552458 0.608893 167 156 162 
-0.0443237 -0.054266 0.608147 168 157 163 
-0.0438508 -0.0533132 0.607322 171 162 167 
-0.0433778 -0.0523598 0.606497 172 163 168 
-0.0430006 -0.0514341 0.605594 173 164 169 
-0.0425273 -0.05048 0.604767 171 162 167 
-0.0419577 -0.0494968 0.604017 171 162 167 
-0.0412917 -0.0484841 0.603343 169 163 167 
-0.0393746 -0.0470949 0.603664 161 155 159 
-0.0352418 -0.0450321 0.605737 149 143 149 
-0.0301415 -0.0426634 0.608557 121 115 121 
-0.0284086 -0.0413059 0.608696 107 101 107 
-0.0276383 -0.0402389 0.608071 115 106 113 
-0.0508338 -0.0631388 0.616133 139 128 136 
-0.0505539 -0.0622448 0.615157 138 127 135 
-0.0501788 -0.0613246 0.61426 140 129 137 
-0.0498036 -0.0604043 0.613363 185 174 178 
-0.0493331 -0.0594571 0.612545 172 161 165 
-0.048767 -0.0584825 0.611805 164 153 157 
-0.0482006 -0.0575071 0.611065 164 153 157 
-0.047634 -0.0565308 0.610323 162 151 155 
-0.047067 -0.0555537 0.609581 164 153 159 
-0.0464998 -0.0545757 0.608838 166 155 161 
-0.0459323 -0.0535969 0.608094 168 157 163 
-0.0453644 -0.0526172 0.607348 173 162 168 
-0.0448921 -0.0516648 0.606525 172 161 167 
-0.0444196 -0.050712 0.6057 172 163 168 
-0.0437551 -0.0497016 0.60503 170 161 166 
-0.0431862 -0.0487186 0.604281 168 159 164 
-0.042617 -0.0477348 0.603531 168 159 164 
-0.040799 -0.0463727 0.603778 167 158 163 
-0.0365769 -0.0442749 0.605933 128 122 128 
-0.0311005 -0.0417809 0.609066 113 104 111 
-0.0292739 -0.0403914 0.609283 110 101 108 
-0.0285044 -0.0393237 0.608658 114 105 112 
-0.0527171 -0.0625403 0.61582 137 128 135 
-0.0522477 -0.0615955 0.615005 134 125 132 
-0.0517782 -0.0606502 0.61419 135 122 130 
-0.0513085 -0.0597045 0.613374 143 127 134 
-0.0507434 -0.0587313 0.612637 157 141 148 
-0.0501781 -0.0577573 0.611899 175 162 166 
-0.0497078 -0.0568098 0.611081 171 158 162 
-0.0490466 -0.0558068 0.61042 166 153 157 
-0.0483851 -0.0548027 0.609758 164 153 157 
-0.0478185 -0.0538251 0.609016 165 154 158 
-0.0472517 -0.0528467 0.608273 167 156 160 
-0.046589 -0.0518394 0.607607 171 160 166 
-0.0461172 -0.0508874 0.606784 171 160 166 
-0.0455496 -0.0499065 0.606038 171 160 166 
-0.0449816 -0.0489246 0.605291 167 156 162 
-0.0444133 -0.0479419 0.604544 168 157 163 
-0.043749 -0.0469293 0.603872 149 138 144 
-0.0419337 -0.045565 0.604121 116 103 109 
-0.0377185 -0.0434607 0.606281 109 96 102 
-0.0320592 -0.0408987 0.609574 109 96 102 
-0.0303313 -0.0395365 0.609716 111 98 104 
-0.0294665 -0.0384384 0.609169 114 103 111 
-0.0544021 -0.0627048 0.616879 159 158 160 
-0.0539334 -0.0617609 0.616066 137 128 135 
-0.0534644 -0.0608165 0.615252 132 123 130 
-0.0529005 -0.059845 0.614518 132 119 127 
-0.0525262 -0.0589264 0.613623 137 124 130 
-0.0519618 -0.0579535 0.612887 139 126 132 
-0.0514922 -0.057007 0.612071 144 128 135 
-0.0509273 -0.0560327 0.611333 177 161 166 
-0.0503621 -0.0550574 0.610595 175 159 164 
-0.0497966 -0.0540813 0.609855 167 155 155 
-0.0491356 -0.0530764 0.609193 167 155 155 
-0.0484742 -0.0520703 0.60853 167 156 160 
-0.0478124 -0.051063 0.607865 173 162 166 
-0.0472456 -0.0500829 0.607121 178 167 171 
-0.0466786 -0.0491021 0.606376 175 164 170 
-0.0462067 -0.0481492 0.605552 147 136 142 
-0.0455435 -0.0471377 0.604883 135 124 130 
-0.0447842 -0.0460958 0.604289 122 111 117 
-0.0430674 -0.0447584 0.604464 110 97 103 
-0.0392422 -0.0427658 0.606322 109 96 102 
-0.0338798 -0.0402847 0.609392 107 94 100 
-0.031292 -0.0386525 0.610226 111 98 104 
-0.0303323 -0.0375234 0.609755 116 103 109 
-0.0553328 -0.0618472 0.617365 160 156 159 
-0.054959 -0.0609299 0.616472 137 127 137 
-0.0546799 -0.0600391 0.615499 131 121 131 
-0.0540218 -0.0590408 0.614845 128 117 125 
-0.0536478 -0.0581227 0.613951 131 118 124 
-0.053084 -0.0571499 0.613216 132 119 125 
-0.0526148 -0.0562037 0.6124 130 117 123 
-0.0521455 -0.055257 0.611584 151 135 140 
-0.0515809 -0.054282 0.610847 148 132 137 
-0.0510162 -0.0533062 0.610108 156 144 144 
-0.0502608 -0.0522732 0.609526 171 159 159 
-0.0496953 -0.0512953 0.608785 178 168 168 
-0.0489391 -0.0502596 0.6082 174 163 169 
-0.048373 -0.0492796 0.607457 154 143 149 
-0.0477112 -0.0482699 0.606791 149 132 144 
-0.0471444 -0.0472881 0.606045 113 100 108 
-0.0464819 -0.0462762 0.605377 114 101 109 
-0.0457234 -0.0452336 0.604784 112 101 107 
-0.0442957 -0.0439826 0.604729 109 96 100 
-0.0411459 -0.0421924 0.606054 107 94 98 
-0.0356972 -0.0396741 0.609208 107 94 98 
-0.0329224 -0.0379794 0.6102 110 97 101 
-0.0311982 -0.0366086 0.610342 119 106 114 
-0.0562632 -0.0609901 0.617851 159 158 160 
-0.0559841 -0.0600996 0.616878 137 127 137 
-0.0557049 -0.0592093 0.615904 128 118 128 
-0.0551422 -0.0582378 0.615172 124 113 121 
-0.0546738 -0.0572928 0.614358 121 110 116 
-0.0542052 -0.0563474 0.613544 123 112 118 
-0.0537364 -0.0554015 0.612729 123 112 118 
-0.0531727 -0.0544272 0.611993 124 111 117 
-0.0526088 -0.0534522 0.611256 130 114 119 
-0.0520445 -0.0524763 0.610519 125 109 114 
-0.05148 -0.0514995 0.60978 134 118 123 
-0.0507252 -0.0504648 0.609197 135 119 124 
-0.0499699 -0.0494286 0.608613 128 112 119 
-0.0493091 -0.0484197 0.607949 120 104 111 
-0.0487432 -0.0474386 0.607205 113 97 106 
-0.0480818 -0.0464275 0.606538 116 100 109 
-0.0473246 -0.0453857 0.605948 108 92 101 
-0.0464716 -0.0443128 0.605433 112 96 103 
-0.0453319 -0.0431488 0.605147 106 93 97 
-0.043046 -0.0416229 0.605783 106 93 97 
-0.039421 -0.0396688 0.607486 107 94 98 
-0.0362699 -0.0378538 0.608793 111 98 102 
-0.0571932 -0.0601335 0.618336 158 158 160 
-0.0568198 -0.0592163 0.617444 136 129 138 
-0.0565406 -0.058326 0.616471 126 119 128 
-0.0560727 -0.0573815 0.615658 124 113 121 
-0.0556991 -0.0564638 0.614765 118 107 113 
-0.0551364 -0.0554908 0.614031 119 108 114 
-0.0546679 -0.0545448 0.613217 118 107 113 
-0.0541994 -0.0535983 0.612402 120 107 113 
-0.0537306 -0.0526512 0.611586 119 106 112 
-0.0530723 -0.0516471 0.610929 119 103 108 
-0.0524135 -0.0506417 0.610269 119 103 108 
-0.0516595 -0.0496064 0.609687 115 99 104 
-0.050905 -0.0485696 0.609104 116 100 105 
-0.050245 -0.0475603 0.60844 109 93 98 
-0.0495845 -0.0465497 0.607775 107 91 96 
-0.0488286 -0.0455085 0.607187 107 91 96 
-0.0480722 -0.0444658 0.606596 106 90 95 
-0.0472201 -0.0433917 0.606082 105 89 94 
-0.046177 -0.0422559 0.60572 105 89 94 
-0.0438945 -0.0407265 0.606358 107 91 96 
-0.0421817 -0.0393714 0.606526 108 92 99 
-0.0397996 -0.0377982 0.607226 113 97 104 
-0.0576556 -0.0583331 0.61801 135 128 137 
-0.0573763 -0.0574429 0.617037 125 118 127 
-0.0570029 -0.0565255 0.616144 122 113 118 
-0.0566294 -0.0556079 0.615251 117 106 112 
-0.0561616 -0.0546625 0.614438 116 105 111 
-0.0556935 -0.0537165 0.613624 118 105 111 
-0.0552253 -0.0527701 0.61281 116 103 107 
-0.0546624 -0.0517948 0.612075 116 103 107 
-0.0540048 -0.0507902 0.611417 114 101 105 
-0.0533466 -0.0497844 0.610759 113 100 104 
-0.0525935 -0.0487485 0.610177 110 97 101 
-0.0518398 -0.047711 0.609594 113 97 102 
-0.0510857 -0.046672 0.60901 107 91 96 
-0.0504258 -0.0456608 0.608345 105 89 94 
-0.0496707 -0.0446189 0.607757 106 90 95 
-0.0488201 -0.0435456 0.607245 105 89 94 
-0.0478739 -0.0424404 0.606809 102 86 91 
-0.046927 -0.0413331 0.60637 104 88 93 
-0.044743 -0.0398301 0.606933 106 90 95 
-0.0435084 -0.0386246 0.606718 106 93 99 
-0.0579328 -0.05567 0.61663 122 113 118 
-0.0574654 -0.0547247 0.615818 116 105 111 
-0.0569978 -0.053779 0.615005 114 103 109 
-0.05653 -0.0528328 0.614191 116 103 109 
-0.056062 -0.051886 0.613377 113 100 104 
-0.0554996 -0.0509103 0.612642 113 100 104 
-0.0548426 -0.0499051 0.611985 111 98 102 
-0.054185 -0.0488986 0.611327 110 97 101 
-0.0534326 -0.0478619 0.610746 106 93 97 
-0.0525852 -0.0467945 0.610242 108 92 97 
-0.0519263 -0.0457839 0.60958 105 89 94 
-0.0511724 -0.0447425 0.608994 104 88 93 
-0.0503233 -0.0436698 0.608484 100 87 91 
-0.0494736 -0.0425952 0.607973 100 87 91 
-0.0485284 -0.0414886 0.607537 99 86 90 
-0.0474876 -0.0403495 0.607176 100 87 91 
-0.0455915 -0.0389338 0.607508 102 89 93 
-0.0442635 -0.037696 0.607371 103 92 98 
-0.0586745 -0.0547593 0.617277 121 112 119 
-0.0583013 -0.0538416 0.616384 114 101 107 
-0.0578339 -0.0528956 0.615571 113 100 106 
-0.0573664 -0.0519491 0.614758 112 99 103 
-0.0568988 -0.0510021 0.613944 110 97 101 
-0.0563368 -0.0500259 0.613209 109 96 100 
-0.0556803 -0.04902 0.612553 109 94 95 
-0.0549291 -0.0479839 0.611974 107 92 93 
-0.0541774 -0.0469462 0.611394 105 90 91 
-0.0533309 -0.0458777 0.610891 104 89 90 
-0.0525781 -0.0448367 0.610307 101 86 87 
-0.0518249 -0.0437942 0.609721 100 85 86 
-0.0509766 -0.0427201 0.609212 99 87 87 
-0.0500331 -0.0416141 0.608778 99 87 87 
-0.0490888 -0.0405058 0.608343 98 86 86 
-0.0481438 -0.0393952 0.607904 99 87 87 
-0.0463451 -0.038007 0.608161 102 90 90 
-0.0451137 -0.036798 0.607947 104 93 99 
-0.0593229 -0.0538204 0.618005 120 111 118 
-0.0589496 -0.0529022 0.617112 112 101 107 
-0.0584824 -0.0519556 0.616299 110 99 105 
-0.0580151 -0.0510085 0.615485 111 98 102 
-0.0575476 -0.0500608 0.614671 107 94 98 
-0.056986 -0.0490839 0.613936 106 93 97 
-0.0563299 -0.048077 0.61328 106 93 97 
-0.0555794 -0.0470397 0.612701 103 90 94 
-0.0548284 -0.0460009 0.612121 102 86 91 
-0.0539826 -0.044931 0.611618 101 85 90 
-0.0532306 -0.0438889 0.611034 100 84 89 
-0.0523837 -0.0428153 0.610527 98 82 87 
-0.0515361 -0.0417398 0.610018 100 84 89 
-0.050688 -0.0406623 0.609507 101 85 90 
-0.0496502 -0.0395221 0.609149 98 85 89 
-0.0484225 -0.0383181 0.608944 99 86 90 
-0.0464369 -0.0368645 0.609356 102 89 93 
-0.0452066 -0.0356524 0.609143 106 93 99 
-0.0598783 -0.0528527 0.618814 121 112 117 
-0.0595986 -0.0519622 0.617839 112 101 107 
-0.0591316 -0.051015 0.617026 110 99 105 
-0.0586644 -0.0500672 0.616213 108 97 101 
-0.0581971 -0.049119 0.615398 106 93 97 
-0.0575419 -0.0481122 0.614743 104 91 95 
-0.0568863 -0.0471042 0.614087 103 90 94 
-0.0561364 -0.0460656 0.613508 102 89 93 
-0.055386 -0.0450254 0.612928 99 86 90 
-0.0545411 -0.043954 0.612425 97 84 88 
-0.0536955 -0.0428807 0.61192 96 83 87 
-0.0529434 -0.0418355 0.611334 96 83 87 
-0.0520025 -0.0407282 0.610903 97 84 88 
-0.0511551 -0.0396491 0.610392 98 85 89 
-0.0501183 -0.0385068 0.610035 98 85 89 
-0.0487032 -0.0372388 0.609986 100 87 91 
-0.0470979 -0.0359049 0.610088 102 89 93 
-0.0458691 -0.0346908 0.609875 106 93 97 
-0.060808 -0.0528034 0.620517 125 121 124 
-0.0605281 -0.0519124 0.619542 120 111 116 
-0.0600613 -0.0509647 0.618729 108 99 104 
-0.0597814 -0.0500738 0.617755 107 98 103 
-0.0592209 -0.0490965 0.617021 105 94 98 
-0.05866 -0.0481185 0.616286 101 90 94 
-0.0580989 -0.0471395 0.615551 98 87 91 
-0.0574437 -0.0461304 0.614894 97 86 90 
-0.0566944 -0.0450905 0.614316 97 86 90 
-0.0558508 -0.0440193 0.613815 96 85 89 
-0.0551004 -0.0429761 0.613232 97 84 88 
-0.0542556 -0.0419012 0.612727 96 83 87 
-0.0534102 -0.0408244 0.61222 96 83 87 
-0.0525641 -0.0397457 0.611711 97 85 85 
-0.0518116 -0.0386957 0.611121 98 86 86 
-0.0507761 -0.0375518 0.610765 98 86 86 
-0.0493627 -0.0362814 0.610717 100 88 88 
-0.0475711 -0.0348825 0.610976 103 91 91 
-0.046438 -0.0336973 0.610685 107 94 98 
-0.0612723 -0.0518061 0.621409 125 121 124 
-0.0609921 -0.0509145 0.620434 119 113 117 
-0.0606187 -0.0499944 0.619539 108 99 104 
-0.0602452 -0.0490742 0.618644 106 97 102 
-0.0596848 -0.0480959 0.61791 103 94 97 
-0.0592177 -0.0471458 0.617095 100 89 93 
-0.0585633 -0.0461365 0.616439 96 85 89 
-0.0579086 -0.0451261 0.615782 95 84 88 
-0.0571598 -0.0440846 0.615204 95 84 88 
-0.0563169 -0.0430118 0.614702 95 84 88 
-0.0555671 -0.041967 0.61412 96 83 87 
-0.054723 -0.0408905 0.613615 96 83 87 
-0.0539721 -0.0398424 0.613029 95 82 86 
-0.0530329 -0.0387317 0.612598 97 85 85 
-0.052281 -0.0376801 0.612009 98 86 86 
-0.0513405 -0.0365651 0.611573 99 87 87 
-0.0501171 -0.0353544 0.61137 102 90 90 
-0.0485161 -0.0340153 0.611475 104 92 92 
-0.0473846 -0.0328287 0.611186 105 94 98 
-0.061831 -0.0508359 0.622221 124 120 123 
-0.0614575 -0.0499153 0.621326 120 114 118 
-0.0610839 -0.0489944 0.620431 108 99 104 
-0.0606171 -0.0480444 0.619616 106 97 102 
-0.0601502 -0.0470939 0.618801 103 92 96 
-0.0595897 -0.0461135 0.618065 98 87 91 
-0.0590291 -0.0451322 0.617329 96 85 89 
-0.0583747 -0.0441204 0.616672 94 83 87 
-0.0576265 -0.0430775 0.616092 94 83 87 
-0.0567843 -0.0420029 0.615591 97 84 88 
-0.056035 -0.0409567 0.615009 96 83 87 
-0.0552852 -0.0399089 0.614424 95 82 86 
-0.0544413 -0.0388289 0.613917 95 82 86 
-0.0536905 -0.0377778 0.613329 97 85 85 
-0.0529392 -0.0367251 0.612739 98 86 86 
-0.0519059 -0.0355775 0.612383 100 88 88 
-0.0506839 -0.0343646 0.61218 100 88 88 
-0.049273 -0.0330855 0.61213 104 92 92 
-0.0482368 -0.0319288 0.611764 104 95 98 
-0.0614575 -0.047964 0.621404 108 99 104 
-0.0609907 -0.0470128 0.620589 104 95 100 
-0.0605237 -0.0460612 0.619773 103 92 96 
-0.0599635 -0.0450795 0.619037 96 85 89 
-0.059403 -0.0440969 0.6183 95 84 88 
-0.058749 -0.0430836 0.617642 94 83 87 
-0.0580945 -0.042069 0.616982 94 83 87 
-0.057253 -0.0409928 0.616481 96 83 87 
-0.0565043 -0.0399451 0.615898 96 83 87 
-0.0556616 -0.0388651 0.615393 95 82 86 
-0.0549119 -0.0378141 0.614806 95 82 86 
-0.0542552 -0.0367924 0.614139 97 85 85 
-0.0533172 -0.0356761 0.613707 98 86 86 
-0.0526596 -0.0346514 0.613036 100 88 88 
-0.0513454 -0.0334052 0.612913 100 88 88 
-0.06174 -0.0469028 0.62246 110 99 105 
-0.0612732 -0.0459503 0.621644 104 93 99 
-0.0608061 -0.0449972 0.620827 101 90 94 
-0.0603389 -0.0440438 0.620009 98 87 91 
-0.0596856 -0.04303 0.619352 94 83 87 
-0.0590318 -0.042015 0.618693 93 82 86 
-0.0583776 -0.0409987 0.618033 94 83 87 
-0.0576299 -0.0399509 0.617451 94 83 87 
-0.0568817 -0.0389015 0.616868 96 84 84 
-0.056133 -0.0378505 0.616283 96 84 84 
-0.0553838 -0.0367979 0.615696 96 84 84 
-0.0547275 -0.0357749 0.615029 98 86 86 
-0.0538839 -0.034688 0.614517 99 87 87 
-0.0532266 -0.0336622 0.613847 100 88 88 
-0.0617465 -0.0457514 0.623761 110 99 105 
-0.0614648 -0.0448561 0.622781 104 93 99 
-0.0609977 -0.0439016 0.621963 101 90 94 
-0.0605304 -0.0429466 0.621144 98 87 91 
-0.0599701 -0.041961 0.620405 94 83 87 
-0.0593166 -0.0409443 0.619746 93 82 86 
-0.0587557 -0.0399568 0.619005 93 82 86 
-0.0580085 -0.0389073 0.618423 93 82 86 
-0.0572608 -0.0378562 0.617839 96 84 84 
-0.0565125 -0.0368035 0.617254 96 84 84 
-0.055857 -0.0357804 0.616587 96 84 84 
-0.0550146 -0.0346934 0.616078 98 86 86 
-0.0544515 -0.0336989 0.615329 99 87 87 
-0.0537948 -0.0326719 0.614658 102 90 90 
-0.0616637 -0.0445674 0.625145 110 99 105 
-0.0612888 -0.0436407 0.624245 104 93 99 
-0.0610065 -0.0427438 0.623263 100 89 93 
-0.0607242 -0.0418471 0.622281 98 87 91 
-0.0601639 -0.0408598 0.621541 94 83 87 
-0.0596961 -0.0399021 0.62072 93 82 86 
-0.0589498 -0.0388521 0.620139 93 82 86 
-0.058203 -0.0378005 0.619556 93 82 86 
-0.0575485 -0.0367783 0.618891 96 84 84 
-0.0568008 -0.0357238 0.618305 96 84 84 
-0.0561455 -0.0346989 0.617638 96 84 84 
-0.0554899 -0.0336729 0.616969 99 87 87 
-0.0548339 -0.0326456 0.616299 100 88 88 
-0.0540842 -0.0315852 0.615707 100 90 90 
-0.0607533 -0.0431126 0.627265 113 109 114 
-0.061024 -0.0423917 0.625792 104 93 99 
-0.0609258 -0.0415529 0.624645 100 89 93 
-0.0608279 -0.0407149 0.6235 97 86 90 
-0.0603602 -0.0397562 0.622678 94 83 87 
-0.0598923 -0.038797 0.621856 94 83 87 
-0.0591463 -0.0377449 0.621274 93 82 86 
-0.0583998 -0.0366913 0.62069 96 83 87 
-0.0577456 -0.0356673 0.620025 97 85 85 
-0.057091 -0.034642 0.619358 97 85 85 
-0.056436 -0.0336154 0.61869 96 84 84 
-0.0557807 -0.0325877 0.618021 99 87 87 
-0.0551249 -0.0315587 0.61735 100 88 88 
-0.0544688 -0.0305285 0.616678 102 90 90 
-0.059305 -0.0422875 0.631114 115 111 116 
-0.0597571 -0.0416214 0.629471 114 110 115 
-0.0603944 -0.0410183 0.627667 105 94 100 
-0.0607562 -0.0403283 0.626112 101 90 96 
-0.060565 -0.0394584 0.625045 97 86 92 
-0.0602816 -0.0385584 0.624059 95 84 88 
-0.0599059 -0.037628 0.623155 95 84 88 
-0.0591601 -0.0365735 0.622572 93 82 86 
-0.0585064 -0.0355486 0.621907 96 83 87 
-0.0578524 -0.0345225 0.62124 97 85 85 
-0.0573833 -0.0335581 0.620413 97 85 85 
-0.0567286 -0.0325299 0.619744 97 85 85 
-0.0559807 -0.0314687 0.619153 100 88 88 
-0.0553252 -0.0304378 0.618482 102 90 90 
-0.0542979 -0.0292771 0.618125 102 90 90 
-0.0597702 -0.0396394 0.629547 105 94 100 
-0.0602219 -0.0389782 0.627906 101 90 96 
-0.0604903 -0.0382589 0.62643 97 86 92 
-0.0602063 -0.0373573 0.625443 96 85 89 
-0.0597379 -0.036394 0.624617 97 84 88 
-0.059177 -0.035399 0.623871 96 83 87 
-0.0586158 -0.0344032 0.623125 96 83 87 
-0.0579619 -0.0333751 0.622457 97 85 85 
-0.0574926 -0.032409 0.621628 98 86 86 
-0.056838 -0.0313787 0.620958 98 86 86 
-0.0561832 -0.0303473 0.620287 100 88 88 
-0.0552499 -0.029218 0.619853 102 90 90 
-0.054316 -0.0280866 0.619416 103 91 91 
-0.0533813 -0.0269528 0.618976 103 91 91 
-0.0597024 -0.0384375 0.63094 105 94 102 
-0.0601522 -0.037776 0.629296 101 90 96 
-0.0603271 -0.0370252 0.627899 97 86 92 
-0.0600424 -0.0361218 0.62691 95 84 90 
-0.0596657 -0.0351873 0.626001 97 84 88 
-0.0591968 -0.0342215 0.625173 96 83 87 
-0.0586355 -0.0332236 0.624425 94 83 87 
-0.0580741 -0.0322249 0.623676 95 84 88 
-0.0574199 -0.0311935 0.623006 96 85 89 
-0.0569502 -0.0302248 0.622175 99 87 87 
-0.056203 -0.0291591 0.621582 100 88 88 
-0.0552704 -0.0280271 0.621147 102 90 90 
-0.0544296 -0.0269254 0.620629 102 90 90 
-0.053403 -0.0257564 0.620268 103 91 91 
-0.0597297 -0.0372626 0.632254 106 97 104 
-0.0600858 -0.0365703 0.630689 101 90 96 
-0.0603511 -0.0358497 0.629208 98 87 93 
-0.0601577 -0.0349758 0.628136 95 84 90 
-0.0597807 -0.0340399 0.627226 95 84 88 
-0.0593116 -0.0330723 0.626396 94 83 87 
-0.0586583 -0.0320409 0.625728 94 83 87 
-0.0580046 -0.0310083 0.625057 95 84 88 
-0.0574428 -0.0300065 0.624306 97 86 90 
-0.0568806 -0.0290038 0.623553 99 87 87 
-0.0561336 -0.0279356 0.622959 100 88 88 
-0.0552016 -0.0268007 0.622522 102 90 90 
-0.0544535 -0.0257289 0.621924 103 91 91 
-0.0537974 -0.0246884 0.621246 103 91 91 
-0.0600345 -0.036177 0.633324 104 94 104 
-0.0603892 -0.0354849 0.631757 102 91 99 
-0.0604697 -0.0347021 0.630438 98 87 95 
-0.0602757 -0.033827 0.629364 97 86 92 
-0.0598983 -0.0328896 0.628452 95 84 88 
-0.0593373 -0.0318887 0.627702 95 84 88 
-0.0586841 -0.0308551 0.627032 95 84 88 
-0.0580305 -0.0298204 0.626361 96 85 89 
-0.0573766 -0.0287843 0.625688 97 86 90 
-0.0567223 -0.0277471 0.625014 100 87 91 
-0.0560676 -0.0267086 0.624338 100 87 91 
-0.0555046 -0.0257015 0.623581 102 90 90 
-0.054757 -0.0246279 0.622983 103 91 91 
-0.0604328 -0.0351203 0.634314 107 97 107 
-0.0606945 -0.0343975 0.632827 103 92 100 
-0.0606826 -0.0335831 0.631588 100 89 97 
-0.0604879 -0.032707 0.630512 97 86 92 
-0.0601103 -0.0317682 0.629599 95 84 88 
-0.0595493 -0.0307657 0.628848 95 84 88 
-0.0588963 -0.0297302 0.628177 95 84 88 
-0.0583347 -0.0287257 0.627424 97 86 90 
-0.0575892 -0.0276557 0.626831 98 87 91 
-0.0569351 -0.0266165 0.626156 100 88 88 
-0.0562806 -0.0255761 0.625479 100 88 88 
-0.0557178 -0.0245674 0.624722 103 91 91 
-0.0552467 -0.0235908 0.623884 103 91 91 
-0.0610289 -0.0349415 0.636386 121 115 121 
-0.0607416 -0.0340308 0.635388 114 105 112 
-0.0610019 -0.033308 0.633899 104 93 99 
-0.0609891 -0.0324931 0.632658 101 90 96 
-0.0607938 -0.0316162 0.631581 100 87 93 
-0.0603245 -0.0306445 0.630748 97 84 88 
-0.059855 -0.0296722 0.629915 98 85 89 
-0.0592024 -0.0286351 0.629243 98 85 89 
-0.0585493 -0.0275967 0.62857 99 87 87 
-0.0578042 -0.0265246 0.627976 100 88 88 
-0.0571503 -0.0254836 0.6273 100 88 88 
-0.0565878 -0.0244742 0.626542 100 88 88 
-0.0560251 -0.0234639 0.625784 103 91 91 
-0.0555539 -0.022486 0.624945 104 92 92 
-0.06134 -0.0338509 0.637462 133 127 133 
-0.0612344 -0.0330018 0.636298 114 105 112 
-0.0611291 -0.0321536 0.635136 105 94 100 
-0.0611153 -0.0313379 0.633893 101 90 96 
-0.0609194 -0.0304598 0.632814 104 88 93 
-0.0606324 -0.0295503 0.631817 97 84 88 
-0.0601629 -0.0285767 0.630983 99 86 90 
-0.0595105 -0.0275378 0.630311 98 85 89 
-0.0587662 -0.0264653 0.629717 99 87 87 
-0.0580215 -0.0253911 0.629122 100 88 88 
-0.0573679 -0.0243483 0.628445 100 88 88 
-0.056897 -0.0233702 0.627607 100 88 88 
-0.0562427 -0.0223252 0.626927 103 91 91 
-0.0557714 -0.0213457 0.626087 104 92 92 
-0.0600929 -0.0314052 0.63869 116 107 114 
-0.0603497 -0.0306801 0.637195 106 93 99 
-0.0606072 -0.0299572 0.635702 104 91 97 
-0.0609566 -0.0292686 0.634131 105 89 94 
-0.0605779 -0.0283254 0.633214 100 84 89 
-0.0601993 -0.0273821 0.632297 101 85 90 
-0.059547 -0.026341 0.631623 98 85 89 
-0.0588943 -0.0252987 0.630947 99 86 90 
-0.0582412 -0.0242552 0.630271 100 87 91 
-0.0576791 -0.0232435 0.629512 100 88 88 
-0.0572082 -0.0222641 0.628672 102 90 90 
-0.0567372 -0.0212842 0.627832 103 91 91 
-0.0558998 -0.0201695 0.627311 104 92 92 
-0.0551534 -0.0190866 0.626708 105 93 93 
-0.0575071 -0.029295 0.642405 117 113 118 
-0.0585777 -0.0288506 0.640162 108 97 103 
-0.0596501 -0.0284115 0.637926 104 93 99 
-0.0602697 -0.0278172 0.636104 105 89 94 
-0.0601631 -0.0269678 0.634939 101 86 87 
-0.0600567 -0.0261194 0.633775 101 86 87 
-0.0595865 -0.0251411 0.632937 99 87 87 
-0.0589339 -0.0240966 0.63226 99 87 87 
-0.0584633 -0.0231169 0.631421 100 88 88 
-0.0579924 -0.0221367 0.63058 102 90 90 
-0.0575215 -0.021156 0.62974 102 90 90 
-0.0567763 -0.020074 0.629139 103 91 91 
-0.0562136 -0.0190579 0.628377 104 91 95 
-0.0553762 -0.0179392 0.627853 105 92 96 
-0.0547529 -0.0271081 0.646294 120 119 123 
-0.0579027 -0.0273947 0.642149 110 109 113 
-0.0584276 -0.0267624 0.6404 103 94 99 
-0.0595886 -0.0263598 0.638081 104 91 95 
-0.0602067 -0.0257679 0.636259 100 88 88 
-0.0599179 -0.0248529 0.635256 100 88 88 
-0.0595381 -0.0239053 0.634334 98 86 86 
-0.0590675 -0.0229244 0.633494 99 87 87 
-0.0585966 -0.021943 0.632653 102 90 90 
-0.0581257 -0.0209611 0.631811 102 90 90 
-0.0577457 -0.0200122 0.630889 102 90 90 
-0.057001 -0.0189282 0.630287 104 92 92 
-0.0565294 -0.0179443 0.629444 105 92 96 
-0.0556926 -0.0168236 0.628919 106 93 97 
-0.0547235 -0.0258665 0.647714 124 123 127 
-0.0557862 -0.0254186 0.645458 110 109 113 
-0.0583892 -0.0255256 0.64181 104 95 100 
-0.0590941 -0.0249615 0.639898 102 91 95 
-0.059891 -0.0244341 0.637908 100 89 93 
-0.059692 -0.0235498 0.636821 100 87 91 
-0.0594932 -0.022666 0.635734 99 87 87 
-0.0590222 -0.0216831 0.634892 100 88 88 
-0.0585511 -0.0206996 0.634049 102 90 90 
-0.0582616 -0.0197828 0.633044 102 90 90 
-0.0579722 -0.018866 0.63204 103 91 91 
-0.0574099 -0.0178478 0.631276 104 92 92 
-0.0567562 -0.0167945 0.630593 105 93 93 
-0.0561933 -0.0157743 0.629827 107 95 95 
-0.0557801 -0.0250072 0.648143 138 137 139 
-0.0569307 -0.0245946 0.645804 112 111 113 
-0.0582638 -0.0242528 0.643306 107 96 102 
-0.0592374 -0.0237868 0.641143 102 91 95 
-0.0594892 -0.023063 0.639642 101 90 94 
-0.0596512 -0.0223086 0.638225 102 89 93 
-0.0594516 -0.0214232 0.637137 100 88 88 
-0.0589803 -0.0204383 0.636293 100 88 88 
-0.0585996 -0.0194863 0.635367 102 90 90 
-0.0582188 -0.0185342 0.634441 102 90 90 
-0.0580195 -0.0176496 0.633354 103 91 91 
-0.0576388 -0.0166975 0.632428 104 92 92 
-0.0570762 -0.0156766 0.631663 105 93 93 
-0.0583445 -0.0238692 0.645901 119 115 120 
-0.0592241 -0.0233683 0.643814 106 97 102 
-0.0597443 -0.0227406 0.642062 102 93 98 
-0.0598142 -0.0219513 0.640723 101 92 97 
-0.059704 -0.021097 0.63955 103 90 94 
-0.0594133 -0.0201769 0.638541 102 90 90 
-0.0589417 -0.01919 0.637696 102 90 90 
-0.058651 -0.0182698 0.636687 103 91 91 
-0.0583604 -0.0173499 0.635678 103 91 91 
-0.0581605 -0.0164642 0.634589 103 91 91 
-0.0578701 -0.0155447 0.633581 105 93 93 
-0.0576705 -0.0146598 0.632493 106 93 97 
-0.0601841 -0.0224841 0.644323 107 98 105 
-0.0598923 -0.021561 0.643311 103 94 97 
-0.0603215 -0.0209038 0.641641 102 93 96 
-0.0600304 -0.0199825 0.640631 103 90 94 
-0.0597393 -0.0190614 0.639621 103 90 94 
-0.0592676 -0.0180731 0.638774 103 90 94 
-0.0588863 -0.017118 0.637846 104 92 92 
-0.0585048 -0.0161629 0.636917 104 92 92 
-0.0583947 -0.0153102 0.635745 104 92 92 
-0.0581038 -0.0143895 0.634736 105 93 93 
-0.057813 -0.013469 0.633726 106 93 97 
-0.0608744 -0.0215012 0.645079 107 98 105 
-0.060942 -0.0207106 0.643737 105 94 98 
-0.0607403 -0.0198216 0.642643 103 92 96 
-0.0603588 -0.0188659 0.641714 103 90 94 
-0.0599772 -0.0179101 0.640784 104 92 92 
-0.0595055 -0.0169202 0.639936 103 91 91 
-0.0591238 -0.0159638 0.639006 104 92 92 
-0.0587421 -0.0150072 0.638076 104 92 92 
-0.0585409 -0.0141193 0.636984 104 92 92 
-0.0582496 -0.0131973 0.635973 105 93 93 
-0.0581391 -0.012345 0.634801 107 94 98 
-0.0615654 -0.0205176 0.645836 109 100 105 
-0.0612733 -0.019594 0.644823 105 94 100 
-0.0609812 -0.0186705 0.64381 103 92 98 
-0.0605994 -0.0177135 0.64288 104 91 97 
-0.0602176 -0.0167563 0.641949 104 91 95 
-0.0596558 -0.0157308 0.641182 105 92 96 
-0.0591838 -0.0147387 0.640332 104 91 95 
-0.0586215 -0.0137116 0.639563 104 92 92 
-0.0582393 -0.0127528 0.638631 104 92 92 
-0.0577668 -0.011759 0.637779 105 93 93 
-0.0573845 -0.0107996 0.636847 107 94 98 
-0.0618096 -0.0193665 0.647008 111 105 109 
-0.0616066 -0.0184752 0.645911 109 98 104 
-0.0613141 -0.0175508 0.644897 104 93 99 
-0.0609321 -0.0165926 0.643965 103 92 98 
-0.0604603 -0.0156001 0.643116 103 92 96 
-0.0598088 -0.0145387 0.642429 103 92 96 
-0.0589772 -0.0134072 0.641905 102 91 95 
-0.0581451 -0.0122737 0.641379 102 91 95 
-0.0572225 -0.0111036 0.640932 103 92 96 
-0.055759 -0.0097215 0.640969 103 92 96 
-0.0543844 -0.00837015 0.640921 104 93 97 
-0.0620562 -0.0182129 0.648182 112 106 110 
-0.0618525 -0.0173206 0.647083 109 100 105 
-0.0615596 -0.016395 0.646067 104 95 100 
-0.0611773 -0.0154355 0.645135 102 93 98 
-0.0607054 -0.0144415 0.644284 103 92 96 
-0.0598749 -0.0133093 0.643761 103 92 96 
-0.0586851 -0.0120369 0.643563 102 91 95 
-0.0573148 -0.0106916 0.643524 103 92 96 
-0.0554943 -0.00916758 0.643889 103 92 96 
-0.053672 -0.00763777 0.644247 104 93 97 
-0.0516682 -0.0060316 0.644762 104 93 97 
-0.0505618 -0.00477353 0.64446 109 98 102 
-0.0624835 -0.0171244 0.649191 111 105 109 
-0.0621902 -0.0161975 0.648174 109 100 105 
-0.0618076 -0.0152368 0.64724 104 95 100 
-0.0613356 -0.0142417 0.646388 103 94 99 
-0.0608635 -0.013246 0.645536 104 93 97 
-0.0596757 -0.0119731 0.64534 103 92 96 
-0.0583078 -0.0106274 0.645305 102 91 95 
-0.0565803 -0.00913782 0.645593 103 92 96 
-0.054672 -0.00757262 0.646037 103 92 96 
-0.0527618 -0.00600129 0.646475 106 93 97 
-0.0510291 -0.00449473 0.646744 106 93 97 
-0.0501027 -0.00330341 0.646278 105 94 98 
-0.0629126 -0.016034 0.650201 113 107 113 
-0.0626189 -0.0151064 0.649183 107 101 107 
-0.0620579 -0.0140762 0.648414 105 99 105 
-0.061675 -0.0131139 0.647478 101 95 99 
-0.0606674 -0.0119094 0.64712 104 93 99 
-0.0593019 -0.0105632 0.647088 103 92 98 
-0.0573991 -0.00900331 0.647543 102 91 97 
-0.0555838 -0.00747244 0.64791 103 92 98 
-0.0539455 -0.00600632 0.648108 104 93 97 
-0.0522162 -0.00449967 0.648381 105 92 96 
-0.0511121 -0.00323696 0.64808 106 93 97 
-0.0501864 -0.00204293 0.647613 107 96 100 
-0.0627827 -0.0139108 0.650443 108 102 106 
-0.0622217 -0.0128787 0.649672 105 99 103 
-0.0613043 -0.0117074 0.649232 102 96 100 
-0.059941 -0.01036 0.649202 104 93 99 
-0.0583981 -0.00893876 0.649332 103 92 98 
-0.0567647 -0.00747764 0.649539 103 92 98 
-0.0547726 -0.00587028 0.650069 103 92 98 
-0.0534036 -0.00450467 0.650019 104 93 97 
-0.0522121 -0.00320622 0.649802 103 92 96 
-0.0511983 -0.0019761 0.649418 104 93 97 
-0.0501837 -0.0007433 0.649031 105 94 98 
-0.0620618 -0.0123683 0.652537 111 105 109 
-0.0611451 -0.0111943 0.652096 107 101 105 
-0.0596945 -0.0098094 0.652149 104 98 102 
-0.0583315 -0.00845507 0.652115 103 92 98 
-0.0570562 -0.00713183 0.651994 104 93 99 
-0.0557798 -0.00580488 0.651869 103 92 98 
-0.0544132 -0.0044388 0.651822 103 92 98 
-0.0532236 -0.00313994 0.651607 104 93 97 
-0.0522113 -0.00190933 0.651225 106 93 97 
-0.0512875 -0.000712082 0.650758 106 93 97 
-0.0502737 0.000523672 0.65037 105 94 98 
-0.0608155 -0.0106121 0.655136 113 107 113 
-0.0594554 -0.00925888 0.655106 108 102 108 
-0.0582713 -0.0079715 0.654907 105 99 103 
-0.0569975 -0.00664568 0.654786 102 96 100 
-0.0561666 -0.0054926 0.654248 103 94 99 
-0.0553351 -0.00433755 0.653709 102 93 98 
-0.0543252 -0.00310932 0.653331 103 94 99 
-0.0534035 -0.00191425 0.652869 103 92 96 
-0.052392 -0.000680894 0.652486 104 93 97 
-0.0514688 0.000518978 0.652019 104 93 97 
-0.0503667 0.00179379 0.651712 107 96 100 
-0.0582177 -0.00748801 0.657707 108 102 108 
-0.0570339 -0.00619474 0.657504 105 99 103 
-0.0564691 -0.0051451 0.656716 104 98 102 
-0.0559042 -0.00409457 0.655928 103 94 99 
-0.0553389 -0.00304314 0.655139 102 93 98 
-0.0544184 -0.00184759 0.654678 103 94 99 
-0.0535861 -0.000685751 0.654133 103 92 96 
-0.0525754 0.000550389 0.653749 104 93 97 
-0.0514751 0.00182548 0.653445 104 93 97 
-0.0503739 0.00310357 0.653137 107 96 100 
-0.0576062 -0.00595456 0.65973 110 101 106 
-0.0571298 -0.00493883 0.658858 107 98 103 
-0.0566534 -0.00392258 0.657987 107 98 103 
-0.0560884 -0.00287016 0.657197 103 94 99 
-0.0555231 -0.00181682 0.656407 102 93 98 
-0.0547804 -0.000690654 0.65578 103 94 99 
-0.0537714 0.000545576 0.655399 103 94 97 
-0.0527616 0.00178444 0.655015 103 94 97 
-0.051396 0.00317198 0.654955 103 94 97 
-0.0577934 -0.00473264 0.661005 112 101 107 
-0.0574052 -0.00375067 0.660049 108 99 104 
-0.0569286 -0.00273287 0.659176 108 99 104 
-0.056452 -0.00171453 0.658302 103 94 99 
-0.0557984 -0.000623673 0.657594 102 93 98 
-0.0549677 0.000540718 0.657049 103 94 99 
-0.053871 0.001816 0.656749 103 94 97 
-0.0525964 0.00316733 0.65661 103 94 97 
-0.0509664 0.00466906 0.656796 103 94 97 
-0.0490688 0.00628643 0.657221 103 94 97 
-0.0480563 0.0075397 0.656823 108 99 102 
-0.0580716 -0.00354338 0.662198 114 103 111 
-0.057683 -0.00256003 0.661241 108 99 104 
-0.0572944 -0.00157648 0.660283 107 98 103 
-0.0568176 -0.000556767 0.659409 106 97 102 
-0.055988 0.000608072 0.658865 103 94 97 
-0.0549813 0.00184754 0.658485 103 94 97 
-0.0536205 0.00323562 0.658431 104 95 98 
-0.0521702 0.00466445 0.658456 104 93 97 
-0.0504533 0.00620824 0.658722 103 92 96 
-0.0491771 0.00757234 0.658573 104 93 97 
-0.0481653 0.00882857 0.658174 108 97 101 
-0.0584398 -0.00238726 0.663309 114 103 111 
-0.0579632 -0.00136691 0.662434 109 100 107 
-0.0574864 -0.000346035 0.661559 108 99 106 
-0.0569215 0.000711545 0.660766 106 97 102 
-0.0560042 0.00191532 0.660304 104 95 98 
-0.054822 0.00323087 0.660089 104 95 98 
-0.0533744 0.0046598 0.660117 104 95 98 
-0.0518373 0.00612999 0.660223 103 92 96 
-0.0503869 0.0075679 0.660241 104 93 97 
-0.0491118 0.00893579 0.660091 104 93 97 
-0.0480123 0.0102327 0.659773 107 96 100 
-0.0581968 -0.000978425 0.665009 113 104 111 
-0.0578073 8.55327e-06 0.664048 110 101 108 
-0.0573301 0.00103185 0.66317 109 100 107 
-0.0568528 0.00205566 0.662292 107 98 103 
-0.055936 0.00326258 0.661829 106 97 102 
-0.054491 0.00469178 0.661861 106 97 102 
-0.0529568 0.00616226 0.66197 106 97 100 
-0.0515091 0.00760041 0.661992 104 93 97 
-0.0501481 0.00900583 0.661927 104 93 97 
-0.0488741 0.0103779 0.661776 105 94 98 
-0.0475106 0.0117912 0.661702 107 96 100 
-0.0573458 0.000686765 0.667299 113 107 113 
-0.0573054 0.00153279 0.666 111 105 111 
-0.0568276 0.00255921 0.665119 108 102 108 
-0.0565249 0.00351317 0.664071 109 100 107 
-0.0555207 0.00476038 0.663689 106 97 102 
-0.0540771 0.00619444 0.663719 106 97 102 
-0.052632 0.00763291 0.663745 106 97 100 
-0.0511856 0.00907579 0.663765 104 95 98 
-0.0499137 0.0104483 0.663616 102 93 96 
-0.0485527 0.0118621 0.663546 103 94 97 
-0.0468383 0.0134308 0.663799 104 95 98 
-0.0456508 0.0147776 0.663555 108 99 102 
-0.0558031 0.00264813 0.670267 118 112 118 
-0.0559353 0.00342588 0.668793 112 106 112 
-0.0564179 0.00405568 0.666988 109 103 109 
-0.0560268 0.00504893 0.66602 110 101 108 
-0.055023 0.0063003 0.665636 107 98 103 
-0.0536681 0.00770238 0.665582 107 98 103 
-0.0522243 0.00914571 0.665605 106 97 100 
-0.0509546 0.0105187 0.665459 104 95 98 
-0.049596 0.0119329 0.665391 103 92 96 
-0.0482361 0.0133512 0.665319 104 93 97 
-0.0471385 0.0146599 0.664996 105 94 98 
-0.0455126 0.0162 0.665162 107 98 101 
-0.0435333 0.0178981 0.665649 107 98 101 
-0.0554026 0.00414713 0.672146 121 112 117 
-0.0557947 0.0048171 0.670418 114 105 110 
-0.055577 0.00574078 0.669279 113 104 109 
-0.0553596 0.00666398 0.668141 111 102 107 
-0.054356 0.00791985 0.667754 108 99 104 
-0.0532643 0.00921556 0.667447 107 98 103 
-0.0520841 0.0105516 0.667221 107 98 101 
-0.0508155 0.0119286 0.667073 106 97 100 
-0.0498084 0.0131961 0.666674 102 93 96 
-0.0486253 0.0145421 0.666436 103 94 97 
-0.047792 0.0157392 0.665866 104 95 98 
-0.0464316 0.0171677 0.665787 106 97 100 
-0.0441919 0.0189844 0.666521 104 95 98 
-0.0547878 0.00657924 0.672886 117 108 111 
-0.0544816 0.00754341 0.671826 114 105 108 
-0.0542626 0.00847042 0.670683 113 104 107 
-0.0535207 0.0096201 0.670042 109 100 103 
-0.052691 0.0108088 0.669483 107 98 101 
-0.0520354 0.0119243 0.668755 107 98 101 
-0.0509426 0.0132296 0.668441 106 97 100 
-0.0503734 0.0143107 0.667627 102 93 96 
-0.0493667 0.0155829 0.667225 102 93 96 
-0.0483591 0.0168579 0.66682 103 94 97 
-0.0472631 0.0181739 0.666494 102 93 96 
-0.0540894 0.00905795 0.673707 116 107 110 
-0.0535214 0.0101362 0.672896 114 105 108 
-0.0527791 0.01129 0.672252 111 102 105 
-0.0523847 0.0122953 0.671272 109 100 103 
-0.0520775 0.0132631 0.670209 107 98 101 
-0.051596 0.0143065 0.669313 106 97 100 
-0.0510271 0.0153886 0.668498 102 93 96 
-0.0501087 0.0166245 0.668013 102 93 96 
-0.049277 0.0178244 0.667444 102 93 96 
-0.0472208 0.0195664 0.668024 101 92 95 
-0.0533551 0.0107265 0.675928 117 108 111 
-0.0526996 0.0118459 0.675198 115 106 109 
-0.0523914 0.0128164 0.674131 113 104 107 
-0.0519094 0.0138622 0.673232 109 100 103 
-0.0505902 0.0177821 0.669051 102 93 96 
-0.0500207 0.018868 0.668234 102 93 96 
-0.0532334 0.0121402 0.677563 116 110 114 
-0.0526646 0.0132249 0.676747 115 109 113 
-0.0520955 0.0143104 0.67593 112 106 110 
-0.0515262 0.0153968 0.675112 110 101 106 
-0.0521144 0.014834 0.678804 116 110 116 
-0.0515448 0.015923 0.677984 114 108 114 
-0.0510616 0.0169748 0.677079 110 101 106 
-0.0160442 -0.0501938 0.605009 158 149 156 
-0.0165071 -0.0512739 0.605717 160 149 157 
-0.0143804 -0.0503144 0.605612 159 150 157 
-0.0147416 -0.0514491 0.606267 160 151 158 
-0.0153049 -0.0524716 0.607026 164 153 161 
-0.0158683 -0.0534958 0.607786 165 154 162 
-0.0164321 -0.0545216 0.608547 167 156 164 
-0.0169961 -0.0555491 0.609309 168 157 165 
-0.0244736 -0.0649572 0.617925 143 137 143 
-0.0127192 -0.0504361 0.606211 159 150 157 
-0.0130799 -0.0515687 0.606865 160 151 158 
-0.0136423 -0.052589 0.607625 163 154 161 
-0.014205 -0.0536109 0.608384 163 154 161 
-0.0147679 -0.0546345 0.609145 167 158 165 
-0.015331 -0.0556598 0.609907 167 158 165 
-0.0158944 -0.0566868 0.610669 172 163 170 
-0.016458 -0.0577156 0.611432 174 163 169 
-0.016921 -0.0588011 0.612142 174 163 169 
-0.0173839 -0.0598878 0.612854 176 165 171 
-0.0204515 -0.0636 0.616344 174 165 170 
-0.0220285 -0.0641054 0.617647 159 150 155 
-0.0253265 -0.063709 0.619864 145 136 143 
-0.0110607 -0.0505587 0.606806 160 151 156 
-0.0114209 -0.0516892 0.60746 162 151 157 
-0.0119825 -0.0527073 0.608219 164 153 159 
-0.0124437 -0.0537834 0.608927 164 153 159 
-0.0130056 -0.0548047 0.609687 168 157 163 
-0.0135679 -0.0558274 0.610448 168 157 163 
-0.0141304 -0.056852 0.61121 173 162 168 
-0.0146931 -0.0578783 0.611973 174 163 169 
-0.0152561 -0.0589063 0.612736 174 163 169 
-0.0157185 -0.0599908 0.613447 176 165 171 
-0.0160802 -0.0611313 0.614105 174 165 170 
-0.0169464 -0.0620003 0.61503 175 166 171 
-0.0175104 -0.0630351 0.615797 173 164 169 
-0.019387 -0.0633698 0.61726 172 163 168 
-0.0211637 -0.0637664 0.618673 161 152 157 
-0.00940495 -0.0506822 0.607399 162 151 157 
-0.00976465 -0.0518107 0.608052 162 151 157 
-0.0102249 -0.0528833 0.608759 165 154 160 
-0.0107858 -0.0539006 0.609518 165 154 160 
-0.0112465 -0.0549758 0.610226 168 157 163 
-0.0118078 -0.0559962 0.610987 168 157 163 
-0.01247 -0.0569626 0.611801 173 162 168 
-0.0129312 -0.0580422 0.612511 175 164 170 
-0.0134933 -0.0590676 0.613274 175 164 170 
-0.013955 -0.0601498 0.613984 176 165 171 
-0.0146182 -0.0611238 0.614802 175 166 171 
-0.0156847 -0.0618818 0.615835 174 165 170 
-0.0163486 -0.0628611 0.616655 172 163 168 
-0.0185247 -0.0630318 0.618282 166 155 161 
-0.0202989 -0.0634273 0.619698 153 142 148 
-0.00775184 -0.0508067 0.607988 162 151 157 
-0.0082113 -0.0518761 0.608693 164 153 159 
-0.00867089 -0.0529468 0.6094 165 154 160 
-0.00923103 -0.0539622 0.610159 166 155 161 
-0.00969096 -0.0550354 0.610866 168 157 163 
-0.0103519 -0.0559979 0.61168 168 157 163 
-0.0109127 -0.0570183 0.612442 173 162 168 
-0.0113733 -0.0580959 0.613151 174 165 170 
-0.011834 -0.0591748 0.613861 174 165 170 
-0.012295 -0.0602549 0.614571 175 166 171 
-0.0130578 -0.0611718 0.615442 174 165 170 
-0.0137203 -0.0621458 0.616261 173 164 169 
-0.0153891 -0.0625786 0.61762 172 163 168 
-0.0176626 -0.0626938 0.619305 166 155 161 
-0.0195348 -0.0630344 0.620778 146 135 141 
-0.00620153 -0.0508749 0.608626 162 151 157 
-0.00666034 -0.0519425 0.609332 164 153 159 
-0.00721936 -0.0529545 0.610091 165 154 160 
-0.00757837 -0.0540812 0.610744 167 156 162 
-0.00813783 -0.0550961 0.611504 168 157 163 
-0.00869759 -0.0561126 0.612265 168 157 163 
-0.00915725 -0.0571867 0.612973 172 161 167 
-0.00961715 -0.0582619 0.613682 173 164 169 
-0.00997689 -0.0593938 0.614337 175 166 171 
-0.0104371 -0.0604712 0.615047 175 166 171 
-0.0114997 -0.0612206 0.61608 174 165 170 
-0.0122616 -0.062138 0.616953 171 162 167 
-0.0147313 -0.0621331 0.618746 170 161 166 
-0.018006 -0.0617056 0.620977 162 151 157 
-0.0198757 -0.062048 0.622455 147 136 142 
-0.0209424 -0.0628278 0.623501 119 108 116 
-0.00465355 -0.0509439 0.609262 162 151 157 
-0.00511169 -0.0520096 0.609968 164 153 159 
-0.00556998 -0.0530766 0.610673 165 154 160 
-0.00602844 -0.0541446 0.611379 167 156 162 
-0.00648709 -0.0552139 0.612086 168 157 163 
-0.00684581 -0.0563405 0.61274 168 159 164 
-0.00730479 -0.057412 0.613447 171 162 167 
-0.00766382 -0.0585403 0.614102 173 164 169 
-0.00802293 -0.0596694 0.614756 174 165 170 
-0.00838218 -0.0607992 0.615411 174 165 170 
-0.00964337 -0.0614352 0.616553 173 164 169 
-0.010805 -0.0621309 0.617642 170 161 166 
