ply
format ascii 1.0
comment Created by CloudCompare v2.11 alpha (Anoia)
comment Created 20/2/13 下午11:54
obj_info Generated by CloudCompare!
element vertex 1117
property float x
property float y
property float z
property uchar red
property uchar green
property uchar blue
end_header
-0.00418165 -0.0651043 0.381119 80 91 105 
-0.00403613 -0.0633689 0.378684 132 144 168 
-0.00396227 -0.0631196 0.376705 152 160 188 
-0.00302723 -0.0660382 0.3817 61 66 75 
-0.00319583 -0.063055 0.377585 143 156 181 
-0.00281982 -0.062818 0.375627 156 166 192 
-0.00205625 -0.0627542 0.37651 152 165 190 
-0.00181347 -0.0625361 0.375006 157 165 187 
-0.00141969 -0.0658739 0.382014 62 65 77 
-0.00115668 -0.0624383 0.375785 153 164 185 
-0.00105284 -0.0621402 0.373836 160 168 188 
-0.000517761 -0.0619438 0.372959 162 170 189 
-0.000556988 -0.0668346 0.382058 60 60 70 
0.00126621 -0.0615797 0.372013 164 164 184 
0.00230401 -0.0617248 0.371273 164 169 187 
0.00248038 -0.0674792 0.381877 54 59 64 
0.00744377 -0.0685302 0.381577 52 51 55 
-0.0547543 -0.0360208 0.34862 137 142 162 
-0.054686 -0.0353666 0.347644 140 143 160 
-0.00739154 -0.065124 0.380005 74 91 101 
-0.00730906 -0.0638607 0.378251 140 144 168 
-0.0062937 -0.0654659 0.380703 63 78 91 
-0.00626409 -0.0635148 0.376461 147 158 183 
-0.00524388 -0.0661737 0.381339 59 66 70 
-0.00500332 -0.0633473 0.376387 151 160 186 
-0.00416737 -0.0631657 0.375535 154 163 190 
-0.00399353 -0.0629545 0.374255 158 167 188 
-0.00237378 -0.0668032 0.38188 53 60 68 
-0.00218275 -0.0623201 0.372796 161 170 186 
-0.00148561 -0.0677202 0.381967 54 61 66 
-0.000932165 -0.0620513 0.371819 160 168 185 
0.000290662 -0.0620853 0.370698 161 166 184 
0.000221915 -0.0679813 0.381947 59 61 67 
0.00354153 -0.0678055 0.381732 57 56 63 
-0.0104068 -0.0652635 0.379295 79 87 102 
-0.0107034 -0.0644017 0.378009 111 110 132 
-0.00932186 -0.0660431 0.38025 67 79 85 
-0.00936162 -0.064698 0.378782 102 106 126 
-0.00937257 -0.0639993 0.377153 135 145 174 
-0.00918885 -0.0638775 0.376169 143 153 181 
-0.0083324 -0.0662106 0.380472 65 77 87 
-0.00854572 -0.0653943 0.379772 81 97 108 
-0.00835901 -0.0640884 0.377937 140 142 169 
-0.00775277 -0.0637574 0.377182 147 153 180 
-0.00724166 -0.063606 0.376265 148 157 184 
-0.00747751 -0.0636939 0.375052 149 159 185 
-0.00669299 -0.0667105 0.381106 59 65 71 
-0.00638347 -0.0635033 0.3751 151 162 187 
-0.00632581 -0.0633901 0.373965 155 166 189 
-0.00546554 -0.0676858 0.381551 58 64 66 
-0.00530818 -0.0633422 0.375122 154 164 188 
-0.00532536 -0.0631376 0.373312 160 168 188 
-0.00412925 -0.062862 0.373202 161 169 186 
-0.00361053 -0.0676745 0.381767 55 62 70 
-0.00329001 -0.0626786 0.372346 166 172 185 
-0.00288791 -0.0627479 0.371214 166 171 187 
-0.00205922 -0.0623311 0.371681 161 169 184 
-0.00186177 -0.0687251 0.381846 52 59 64 
-0.00113325 -0.0624724 0.370176 154 162 179 
-0.000748608 -0.0689615 0.38178 54 58 61 
-4.34611e-05 -0.0625277 0.369515 163 159 180 
0.00343842 -0.068917 0.381551 54 53 58 
0.00463528 -0.069627 0.381113 49 51 57 
-0.0257327 -0.0566734 0.36814 135 138 155 
-0.0135904 -0.0651143 0.378305 88 98 114 
-0.0134922 -0.0642082 0.376848 126 133 155 
-0.0125151 -0.06617 0.379778 76 80 92 
-0.012631 -0.0652052 0.378713 92 91 108 
-0.0125364 -0.0645496 0.37779 97 97 119 
-0.012385 -0.0639943 0.375679 146 159 184 
-0.0114699 -0.066249 0.380079 70 76 84 
-0.0113896 -0.0654681 0.379379 80 85 96 
-0.0112956 -0.0640894 0.376844 146 149 172 
-0.0112441 -0.0639628 0.375103 150 160 188 
-0.0108639 -0.0670724 0.380704 61 68 74 
-0.0104546 -0.0639071 0.375989 142 152 182 
-0.00968567 -0.0638586 0.375011 152 162 189 
-0.00880172 -0.0674216 0.381024 60 67 75 
-0.00846019 -0.0637834 0.374855 148 158 184 
-0.00743699 -0.0636096 0.373888 154 165 188 
-0.00722891 -0.0634414 0.372313 164 169 189 
-0.00599615 -0.0632302 0.371901 164 169 189 
-0.00473583 -0.0689272 0.381368 54 61 69 
-0.00411413 -0.0629598 0.371624 165 174 186 
-0.00149897 -0.0627288 0.368391 152 152 172 
-0.000574571 -0.0625014 0.367954 151 147 166 
0.000637223 -0.0627907 0.368615 162 158 179 
0.00308032 -0.0699258 0.381429 54 54 56 
0.00541507 -0.0706036 0.380416 50 52 58 
-0.0261661 -0.0570849 0.366944 133 136 153 
-0.0164862 -0.0644698 0.376265 101 109 128 
-0.0156426 -0.0655183 0.378099 77 86 98 
-0.0155714 -0.0642889 0.375784 124 137 162 
-0.0147481 -0.06625 0.378962 70 78 89 
-0.0145367 -0.0647498 0.377384 92 105 126 
-0.0145572 -0.0642805 0.375668 134 143 165 
-0.0135088 -0.0673186 0.380204 65 70 77 
-0.0132303 -0.0641373 0.37471 150 158 184 
-0.0118515 -0.0682239 0.381133 62 61 68 
-0.0115547 -0.0640424 0.373504 150 163 190 
-0.0105629 -0.0639556 0.373702 153 164 192 
-0.00992188 -0.0686837 0.381471 60 60 69 
-0.00980718 -0.0676741 0.381072 58 68 73 
-0.00950008 -0.0638287 0.372445 160 168 190 
-0.00846409 -0.0636525 0.372726 159 168 191 
-0.00865389 -0.0636436 0.371583 165 170 188 
-0.00747853 -0.0634296 0.370787 163 166 185 
-0.00676474 -0.0686478 0.381365 61 59 67 
-0.00376336 -0.0636196 0.369589 161 166 182 
-0.00274492 -0.0632141 0.369318 160 168 183 
-0.0718773 -0.0343472 0.343304 135 139 153 
-0.070755 -0.0345829 0.343592 134 139 150 
-0.0690494 -0.0352071 0.343887 134 139 144 
-0.068863 -0.0340905 0.342808 138 138 149 
-0.0679078 -0.0355648 0.343764 134 139 144 
-0.0678515 -0.0342269 0.342602 140 139 148 
-0.0671948 -0.0351473 0.34307 136 141 152 
-0.0661243 -0.0350967 0.342356 139 140 150 
-0.0188844 -0.064758 0.375731 97 101 115 
-0.0178531 -0.065393 0.377072 87 93 105 
-0.0178588 -0.0647657 0.376224 94 97 114 
-0.0176137 -0.0642744 0.374796 142 151 174 
-0.0165894 -0.0664371 0.378347 64 81 86 
-0.0166294 -0.0643491 0.37523 132 144 172 
-0.0168238 -0.0643163 0.374111 142 154 181 
-0.0151171 -0.0673987 0.379465 63 68 81 
-0.0148941 -0.0642805 0.374383 144 155 180 
-0.0137796 -0.0644157 0.373409 153 161 186 
-0.0132264 -0.0684386 0.380807 64 64 68 
-0.0126806 -0.0642281 0.372203 151 163 187 
-0.0116151 -0.0639926 0.371282 164 168 188 
-0.0110969 -0.068813 0.38148 63 60 68 
-0.0108463 -0.0639881 0.372138 159 166 189 
-0.010741 -0.063762 0.370458 167 169 190 
-0.00979121 -0.0637675 0.371205 165 170 189 
-0.00963193 -0.0636807 0.369534 161 166 186 
-0.00851387 -0.0636044 0.370503 164 167 186 
-0.00763922 -0.0637236 0.369249 165 165 185 
-0.0057743 -0.0638817 0.369101 157 163 180 
-0.00450512 -0.06422 0.36821 157 162 178 
-0.00304267 -0.0635634 0.368214 150 153 170 
-0.0711506 -0.0355799 0.344185 143 138 148 
-0.0700498 -0.0362868 0.344548 144 141 155 
-0.0683274 -0.0367426 0.344591 144 141 155 
-0.0662908 -0.0373297 0.34442 144 141 155 
-0.0663246 -0.0363814 0.343686 138 138 145 
-0.0652397 -0.0367948 0.343489 139 139 146 
-0.0650855 -0.0357341 0.342057 139 140 152 
-0.0645447 -0.0376779 0.344005 145 142 156 
-0.0641 -0.0369297 0.342594 135 140 145 
-0.0642593 -0.0363375 0.341746 136 139 151 
-0.0595687 -0.0383405 0.343517 140 137 153 
-0.0524424 -0.0394738 0.34212 126 138 152 
-0.0216158 -0.0655324 0.376251 79 87 102 
-0.0217972 -0.0646698 0.375069 88 97 107 
-0.0217235 -0.0642654 0.374037 130 136 160 
-0.0199342 -0.0664516 0.377195 77 82 100 
-0.0200149 -0.0646975 0.375143 105 110 129 
-0.0199753 -0.0643532 0.374059 134 141 164 
-0.0188678 -0.0665378 0.377501 83 87 101 
-0.0190535 -0.0656685 0.376824 91 98 108 
-0.018692 -0.0643541 0.37422 142 149 174 
-0.0189292 -0.0643846 0.373036 150 158 184 
-0.016943 -0.0645822 0.372367 158 167 190 
-0.0160594 -0.0678005 0.379155 61 68 77 
-0.0157838 -0.0645847 0.373014 153 162 187 
-0.0153085 -0.0685296 0.379764 60 63 66 
-0.0148073 -0.0645123 0.371943 158 164 188 
-0.0143993 -0.0688488 0.380349 64 64 68 
-0.0137798 -0.0643841 0.372182 154 160 187 
-0.0139551 -0.0643259 0.371075 162 167 185 
-0.0137383 -0.0640116 0.369854 161 170 189 
-0.0118782 -0.0638683 0.370092 165 168 187 
-0.0118578 -0.0635557 0.368334 161 161 179 
-0.0106428 -0.0636707 0.36903 162 165 186 
-0.0098868 -0.0636603 0.367994 154 159 177 
-0.00886093 -0.0637646 0.368801 160 163 182 
-0.00804131 -0.0637596 0.36815 160 160 178 
-0.0706632 -0.0371291 0.344548 143 141 154 
-0.0694459 -0.0378968 0.345017 147 143 152 
-0.0684686 -0.0388527 0.345809 150 146 151 
-0.0684073 -0.0378064 0.345187 146 143 152 
-0.066635 -0.0397183 0.346585 129 125 126 
-0.0665059 -0.0381514 0.345235 146 143 152 
-0.0656133 -0.0396645 0.346426 139 135 138 
-0.0651126 -0.040363 0.347091 123 106 106 
-0.0646324 -0.0393532 0.345673 152 148 153 
-0.063675 -0.0401697 0.34617 142 138 142 
-0.063653 -0.0390417 0.34492 147 144 154 
-0.0635489 -0.0383347 0.343964 142 140 153 
-0.0633259 -0.0375911 0.342212 139 139 145 
-0.063475 -0.0372973 0.341195 135 139 153 
-0.0626908 -0.0400331 0.34538 152 148 153 
-0.0627517 -0.0382142 0.342974 145 140 148 
-0.0620164 -0.0395035 0.34436 143 142 153 
-0.0616832 -0.0386459 0.342752 145 140 148 
-0.0606307 -0.039145 0.34374 143 140 154 
-0.0250745 -0.0653728 0.375457 89 105 111 
-0.0251199 -0.0645516 0.373997 101 109 129 
-0.0237776 -0.0661529 0.376227 80 85 94 
-0.0241369 -0.0647931 0.374674 89 100 114 
-0.0238032 -0.0642375 0.373042 121 129 151 
-0.0231188 -0.0653582 0.375711 83 90 98 
-0.0231152 -0.0647122 0.374869 90 96 108 
-0.023085 -0.0640578 0.372023 150 159 182 
-0.0219657 -0.0666208 0.376813 75 79 91 
-0.0219985 -0.0641232 0.372865 147 156 182 
-0.0207741 -0.0642372 0.372925 144 149 176 
-0.0203852 -0.0677215 0.377601 71 73 81 
-0.0199273 -0.0643849 0.371647 153 162 186 
-0.0192983 -0.067778 0.377931 69 73 82 
-0.0180785 -0.0686733 0.378591 63 65 73 
-0.0179582 -0.064548 0.371888 153 163 189 
-0.018154 -0.0645088 0.370758 152 165 187 
-0.0167982 -0.0644912 0.370695 159 167 190 
-0.0164601 -0.0691546 0.37938 64 64 67 
-0.0160439 -0.0642519 0.369728 162 169 191 
-0.0150017 -0.064359 0.370533 162 167 187 
-0.0137604 -0.0639987 0.367953 159 159 179 
-0.0705972 -0.0392613 0.345377 149 145 150 
-0.0696475 -0.0389095 0.345506 150 146 151 
-0.0687487 -0.0405772 0.346981 110 93 93 
-0.0674498 -0.0410771 0.34759 99 76 84 
-0.0676958 -0.0398103 0.346698 126 115 116 
-0.0659282 -0.041497 0.348039 92 77 84 
-0.0639367 -0.041817 0.347977 94 77 84 
-0.0637397 -0.0410132 0.347137 112 92 96 
-0.0627773 -0.0380335 0.341437 136 141 146 
-0.0625105 -0.0421135 0.347543 99 76 84 
-0.0620662 -0.0411418 0.346077 129 125 126 
-0.0607229 -0.0388956 0.341836 140 136 148 
-0.0281836 -0.0652557 0.374538 76 84 93 
-0.0281553 -0.0646982 0.37349 90 99 111 
-0.027155 -0.0656553 0.375217 74 81 90 
-0.0271225 -0.0646205 0.373686 90 95 109 
-0.0272534 -0.0641882 0.372134 131 130 154 
-0.0261449 -0.0662984 0.375818 70 76 86 
-0.0261414 -0.0650032 0.374625 86 93 101 
-0.0260435 -0.0642603 0.372483 129 133 156 
-0.0251787 -0.0664453 0.376192 72 78 89 
-0.0250818 -0.0641259 0.371707 141 150 173 
-0.024186 -0.0673326 0.376715 68 73 82 
-0.0243114 -0.0642099 0.370974 151 160 182 
-0.0223351 -0.0676182 0.37708 67 68 81 
-0.0220282 -0.0642041 0.371276 152 160 186 
-0.0217417 -0.0642998 0.369706 158 165 189 
-0.0214027 -0.0678066 0.377411 70 70 82 
-0.0202104 -0.0690279 0.37806 64 69 76 
-0.0200297 -0.0644035 0.370605 155 165 188 
-0.0190645 -0.0643575 0.369497 157 167 188 
-0.0181554 -0.0643098 0.368637 160 168 187 
-0.017392 -0.064359 0.36946 160 169 190 
-0.0159281 -0.0644227 0.367297 164 169 189 
-0.0672778 -0.0422751 0.348119 91 80 84 
-0.0635474 -0.0430334 0.348104 91 80 84 
-0.0628172 -0.0385613 0.340009 135 139 153 
-0.0617257 -0.0425629 0.346404 96 84 84 
-0.0612607 -0.0424133 0.345376 114 109 103 
-0.0614301 -0.0415187 0.344691 140 139 138 
-0.0482867 -0.0535681 0.359664 182 185 204 
-0.0471471 -0.0555515 0.36283 177 180 199 
-0.0464463 -0.055128 0.36213 178 183 203 
-0.0460822 -0.0538628 0.35975 178 182 201 
-0.0455591 -0.0562533 0.363502 177 181 202 
-0.0454627 -0.0546477 0.361129 180 185 207 
-0.0442168 -0.0570608 0.364303 180 184 207 
-0.0443542 -0.055829 0.362617 182 184 205 
-0.0434873 -0.0565946 0.363645 178 183 203 
-0.0434556 -0.0555961 0.361777 183 183 203 
-0.0424772 -0.0583037 0.365821 176 181 201 
-0.0426489 -0.0572586 0.364363 180 185 204 
-0.0425847 -0.0562193 0.362539 182 183 203 
-0.042624 -0.0555896 0.361118 178 178 197 
-0.041502 -0.0579652 0.365087 176 184 203 
-0.041426 -0.0570485 0.363553 179 185 204 
-0.0414067 -0.0564788 0.362487 177 182 201 
-0.0407332 -0.0592587 0.366803 174 184 202 
-0.0405587 -0.0576691 0.364312 174 184 200 
-0.0406323 -0.0564139 0.361476 154 162 181 
-0.0397689 -0.0598509 0.367466 171 182 200 
-0.0397295 -0.0588771 0.366111 176 183 205 
-0.0396931 -0.0582885 0.365069 176 184 204 
-0.0396623 -0.0574362 0.363473 174 183 199 
-0.0384192 -0.0606218 0.368285 161 173 191 
-0.0386182 -0.0596231 0.36679 172 184 203 
-0.0385197 -0.0585458 0.365015 176 181 206 
-0.0385839 -0.0579635 0.363558 171 182 202 
-0.0377861 -0.0602828 0.367503 160 172 194 
-0.0380511 -0.0591725 0.365966 177 181 204 
-0.0377443 -0.0584832 0.364008 172 184 202 
-0.0372478 -0.0608777 0.368229 108 109 124 
-0.0369347 -0.0598633 0.366562 150 158 177 
-0.0368215 -0.0590162 0.364848 177 180 201 
-0.03606 -0.0607094 0.367377 100 104 121 
-0.0358239 -0.0602048 0.366423 110 114 130 
-0.0309735 -0.0653659 0.373716 71 77 90 
-0.0312014 -0.0645585 0.372455 83 91 111 
-0.0311081 -0.0641091 0.371443 100 108 134 
-0.0294658 -0.0661064 0.374811 71 77 88 
-0.0291773 -0.0647531 0.373314 91 103 114 
-0.0293185 -0.0641997 0.371474 113 112 139 
-0.0284916 -0.0662564 0.375187 72 76 87 
-0.0281135 -0.0641636 0.371534 124 123 149 
-0.0282354 -0.0639255 0.369934 148 157 184 
-0.0271852 -0.0640873 0.370702 147 153 180 
-0.0270401 -0.0639926 0.369651 154 157 184 
-0.0264072 -0.0677643 0.376098 67 72 81 
-0.0253836 -0.0678223 0.37655 67 71 81 
-0.0252674 -0.0641847 0.369339 153 160 184 
-0.0241491 -0.0642424 0.368669 157 161 186 
-0.0235262 -0.0681094 0.376915 64 68 81 
-0.0233703 -0.0642963 0.369494 153 161 188 
-0.0222349 -0.0689211 0.377162 65 67 75 
-0.0222864 -0.0642795 0.3685 160 164 187 
-0.021201 -0.0642623 0.367504 159 168 186 
-0.0181449 -0.064341 0.367072 165 167 188 
-0.0662962 -0.0436544 0.348212 87 71 74 
-0.0635126 -0.0437979 0.347351 91 80 84 
-0.062294 -0.0434832 0.346214 88 79 84 
-0.0614867 -0.043512 0.345497 95 87 81 
-0.060936 -0.0424181 0.344159 140 135 133 
-0.0612764 -0.0419413 0.343294 142 142 152 
-0.0547187 -0.0488239 0.351615 82 93 104 
-0.0506316 -0.0552743 0.361739 167 172 190 
-0.0499914 -0.0536769 0.358482 178 186 203 
-0.0494399 -0.0549538 0.361816 173 180 196 
-0.0492289 -0.0534892 0.359315 181 185 204 
-0.0485057 -0.0565141 0.363346 168 167 187 
-0.0483896 -0.0550863 0.36226 174 182 199 
-0.0483958 -0.0535957 0.358012 176 182 202 
-0.047687 -0.0570818 0.363759 163 163 183 
-0.0472204 -0.0537099 0.358904 180 185 205 
-0.0465512 -0.0571991 0.364091 162 171 190 
-0.0464079 -0.0541825 0.357795 156 159 180 
-0.0458609 -0.0579623 0.364835 168 170 194 
-0.0453768 -0.0540217 0.358916 164 167 188 
-0.0447687 -0.059164 0.366301 161 164 185 
-0.0448851 -0.0579775 0.365229 168 172 193 
-0.0436064 -0.0599934 0.367314 167 164 185 
-0.0438487 -0.0584417 0.365891 166 175 193 
-0.0426893 -0.0592696 0.366902 168 174 192 
-0.0418682 -0.061234 0.368829 159 167 186 
-0.0417199 -0.0598161 0.367477 169 173 193 
-0.0409287 -0.061483 0.369135 161 167 186 
-0.040986 -0.0605507 0.368373 164 172 189 
-0.0406645 -0.0566554 0.360456 152 149 173 
-0.0397944 -0.0572791 0.361219 152 151 167 
-0.038998 -0.0616311 0.369275 147 153 168 
-0.0391293 -0.0577105 0.362123 167 165 181 
-0.0380672 -0.062636 0.369708 100 100 111 
-0.037128 -0.0617224 0.369069 95 94 105 
-0.0369174 -0.0589665 0.362912 152 157 177 
-0.0360263 -0.063366 0.370138 77 86 98 
-0.0360163 -0.0620643 0.368929 94 97 112 
-0.0357677 -0.0595599 0.364391 148 148 159 
-0.0348804 -0.0641853 0.371139 91 99 114 
-0.035216 -0.0627657 0.369599 91 102 123 
-0.0350909 -0.0617885 0.368132 90 99 120 
-0.0350081 -0.0611369 0.367155 85 91 112 
-0.0348145 -0.0603405 0.365408 118 116 130 
-0.0347087 -0.0602204 0.363699 135 136 151 
-0.0342908 -0.0624898 0.368802 101 116 136 
-0.0343168 -0.0612054 0.366024 98 104 121 
-0.0333716 -0.0652159 0.372773 75 81 88 
-0.0331581 -0.0641091 0.37143 86 97 114 
-0.0331414 -0.0631671 0.369538 120 127 149 
-0.0332332 -0.0625156 0.367764 139 145 169 
-0.0323305 -0.0652822 0.373232 71 76 88 
-0.032206 -0.0637895 0.370674 105 114 134 
-0.0322464 -0.0629345 0.3687 145 152 176 
-0.0320928 -0.0628133 0.367664 144 155 180 
-0.0314568 -0.0666333 0.374132 73 78 87 
-0.0313483 -0.0634819 0.369512 137 147 175 
-0.0303669 -0.0638968 0.370443 128 135 157 
-0.0302619 -0.0634649 0.368515 142 155 180 
-0.0292398 -0.0638148 0.36951 144 157 184 
-0.0291949 -0.0636102 0.367762 150 160 186 
-0.0284585 -0.0637567 0.368509 150 159 184 
-0.0272677 -0.063965 0.36849 156 160 185 
-0.02744 -0.063848 0.367408 152 160 186 
-0.0262961 -0.064003 0.367041 153 161 187 
-0.0254771 -0.0641359 0.368197 155 162 187 
-0.0244166 -0.064162 0.367158 160 163 189 
-0.0237622 -0.0693025 0.376676 68 65 81 
-0.0232105 -0.0641751 0.366276 165 166 189 
-0.0215354 -0.0642114 0.366213 163 169 187 
-0.0216293 -0.0642064 0.365168 164 167 184 
-0.0201975 -0.0642572 0.366095 160 169 186 
-0.01859 -0.064851 0.365794 164 167 188 
-0.0166661 -0.065463 0.365519 162 167 187 
-0.0674412 -0.0449295 0.347999 73 54 69 
-0.0661398 -0.0451315 0.348053 71 52 67 
-0.0651655 -0.0445821 0.347939 84 62 64 
-0.06035 -0.0435446 0.343559 122 117 115 
-0.0606203 -0.0426906 0.342231 143 141 156 
-0.06002 -0.0445915 0.344274 90 89 84 
-0.0556602 -0.0490898 0.351188 82 93 104 
-0.0539562 -0.0496267 0.352221 88 90 99 
-0.0522451 -0.0551165 0.360425 170 168 189 
-0.0511137 -0.0542041 0.357813 174 184 200 
-0.050451 -0.0567713 0.362818 159 157 171 
-0.049641 -0.0535611 0.35703 177 181 204 
-0.0487421 -0.0578264 0.363733 158 155 174 
-0.0475317 -0.0584778 0.364528 150 155 173 
-0.0472516 -0.0540922 0.356932 165 162 185 
-0.0469826 -0.0590811 0.365264 152 152 170 
-0.045345 -0.054612 0.357571 146 148 172 
-0.0457162 -0.0548201 0.356509 148 144 163 
-0.0452297 -0.0603312 0.36679 160 157 180 
-0.0442178 -0.0615081 0.368786 154 158 175 
-0.0438201 -0.055628 0.357688 141 141 163 
-0.0431483 -0.0616093 0.368848 155 162 181 
-0.0431101 -0.055881 0.358375 140 143 160 
-0.0413749 -0.0625125 0.369361 158 162 181 
-0.0401698 -0.0628691 0.369612 157 161 179 
-0.0403571 -0.0576494 0.3596 149 147 163 
-0.0373882 -0.0638926 0.370026 78 79 88 
-0.034438 -0.0650514 0.372007 82 84 90 
-0.0339973 -0.0611956 0.364513 110 108 122 
-0.0331194 -0.0620541 0.365844 114 115 144 
-0.0334344 -0.0618604 0.36401 106 111 131 
-0.0311744 -0.0630552 0.366416 145 156 182 
-0.0305371 -0.0633526 0.365466 145 158 183 
-0.0295037 -0.0635667 0.366204 151 161 187 
-0.0284181 -0.0636918 0.367022 150 161 184 
-0.0283298 -0.0636375 0.365263 155 164 188 
-0.0273482 -0.0638363 0.366266 154 163 186 
-0.0267296 -0.0638232 0.365062 160 166 188 
-0.0253773 -0.0640398 0.365839 157 166 189 
-0.0252439 -0.0639276 0.364133 165 165 185 
-0.0243661 -0.0640976 0.365668 163 165 189 
-0.0235056 -0.0640476 0.36505 165 167 187 
-0.0225648 -0.0644089 0.364081 163 166 184 
-0.0207392 -0.0646555 0.364115 162 163 178 
-0.019488 -0.0650142 0.364752 160 163 182 
-0.0626763 -0.0447161 0.344902 87 83 84 
-0.0618737 -0.0454647 0.34431 50 47 42 
-0.0602978 -0.0438585 0.341961 137 138 151 
-0.0597563 -0.0446738 0.34296 119 118 120 
-0.0594207 -0.0445265 0.341455 137 136 147 
-0.059147 -0.0454096 0.344049 81 76 74 
-0.0562919 -0.042743 0.336994 132 141 153 
-0.0550032 -0.0429444 0.337053 125 137 151 
-0.0533466 -0.0557503 0.360079 162 157 167 
-0.0490143 -0.0593283 0.364353 154 149 161 
-0.0479346 -0.0595596 0.365102 152 149 165 
-0.0470916 -0.0603726 0.366094 150 150 169 
-0.0463708 -0.0620287 0.368303 146 144 153 
-0.0450032 -0.0623173 0.369027 149 153 165 
-0.0454446 -0.0613018 0.367881 155 152 171 
-0.0448996 -0.0555818 0.355935 144 142 158 
-0.0423707 -0.0630871 0.369128 152 156 176 
-0.0406741 -0.0639883 0.369762 142 144 160 
-0.0401984 -0.058657 0.359512 150 142 158 
-0.0396081 -0.0644289 0.370051 108 113 119 
-0.0346334 -0.0668855 0.371997 78 80 90 
-0.0324429 -0.0626599 0.364235 134 138 163 
-0.0314889 -0.0630069 0.364851 147 159 182 
-0.030555 -0.0633667 0.363882 152 161 184 
-0.0294636 -0.0634965 0.364707 152 162 188 
-0.0294502 -0.0634667 0.363163 155 165 186 
-0.0286819 -0.0635764 0.363961 158 167 187 
-0.0274271 -0.0637008 0.364028 162 167 185 
-0.0265935 -0.0638785 0.362676 161 164 182 
-0.0236276 -0.0644555 0.362582 161 158 176 
-0.0216458 -0.0648134 0.363067 156 158 174 
-0.0195673 -0.0654506 0.363576 157 160 177 
-0.0187084 -0.0659223 0.364063 162 165 186 
-0.0169875 -0.0663423 0.363927 162 159 182 
-0.0590877 -0.0461759 0.343288 90 83 75 
-0.0589506 -0.0456926 0.341655 127 124 134 
-0.0483652 -0.0605423 0.365369 150 148 164 
-0.0443365 -0.0638385 0.369392 152 151 162 
-0.0441486 -0.0567183 0.355817 138 142 156 
-0.0433735 -0.056891 0.356595 140 145 161 
-0.0425528 -0.0642282 0.369307 153 150 171 
-0.0409176 -0.0653613 0.37013 138 133 145 
-0.0334652 -0.0626488 0.362521 113 113 135 
-0.0321833 -0.0630199 0.363168 143 150 174 
-0.0233947 -0.0644497 0.361567 152 149 163 
-0.053452 -0.0559223 0.357481 177 180 201 
-0.043664 -0.0653638 0.369762 150 145 153 
-0.040975 -0.0594632 0.357856 150 142 158 
-0.0414275 -0.0666298 0.370559 140 138 147 
-0.0328968 -0.0635647 0.360999 131 125 142 
-0.0669269 -0.0479117 0.346023 78 80 106 
-0.0656861 -0.0475926 0.344868 71 60 77 
-0.0645174 -0.0473511 0.34362 56 58 64 
-0.0636234 -0.0473004 0.342985 45 48 49 
-0.040598 -0.0674132 0.37002 115 115 119 
-0.0677902 -0.0491582 0.345494 83 85 109 
-0.0667475 -0.0489508 0.34504 77 80 106 
-0.065665 -0.0487727 0.343994 70 74 96 
-0.064674 -0.0483553 0.342589 48 57 67 
-0.0625306 -0.0481625 0.342338 42 39 36 
-0.0689196 -0.0498706 0.345442 76 75 84 
-0.0667671 -0.0501047 0.344765 89 87 112 
-0.0649486 -0.0504375 0.344356 99 105 123 
-0.0647688 -0.0493322 0.342896 74 80 93 
-0.0640608 -0.0493455 0.341723 47 47 51 
-0.0617765 -0.0489944 0.341653 33 39 39 
-0.0597279 -0.0524452 0.345513 85 91 104 
-0.057432 -0.0529223 0.345897 83 90 103 
-0.0541777 -0.0571928 0.35208 182 190 209 
-0.0433057 -0.0608888 0.353742 155 152 171 
-0.0680989 -0.0506292 0.34486 76 75 84 
-0.0658125 -0.0520407 0.345635 103 107 119 
-0.0651278 -0.0512404 0.345254 101 104 119 
-0.0640814 -0.0527404 0.346418 99 110 129 
-0.0633948 -0.0535908 0.347147 102 107 125 
-0.0629936 -0.0511618 0.342724 67 75 90 
-0.0632683 -0.0505962 0.341934 66 64 78 
-0.0623958 -0.0540221 0.347764 107 108 127 
-0.0622368 -0.05175 0.344012 77 84 98 
-0.0625384 -0.0501636 0.341204 41 41 45 
-0.0613628 -0.0542614 0.348144 111 117 133 
-0.0611644 -0.0522302 0.343743 76 81 94 
-0.0604622 -0.0551923 0.34897 101 114 134 
-0.0604093 -0.0525133 0.344466 84 87 99 
-0.0584259 -0.056617 0.350646 112 111 136 
-0.0574474 -0.0548529 0.348275 98 98 111 
-0.0576574 -0.0534833 0.344884 84 88 102 
-0.0566349 -0.058414 0.353036 125 121 144 
-0.0566969 -0.0577073 0.352291 117 113 139 
-0.0566215 -0.0560586 0.349802 95 102 118 
-0.0567876 -0.0543517 0.34718 91 93 103 
-0.0568474 -0.0539824 0.346252 88 89 102 
-0.0556849 -0.0579907 0.353167 174 174 201 
-0.0556659 -0.0570984 0.351502 116 117 147 
-0.0550419 -0.0567888 0.350644 101 102 133 
-0.0422426 -0.0618513 0.353024 135 142 157 
-0.0412142 -0.0627248 0.354854 142 140 156 
-0.0677029 -0.0524722 0.344867 69 70 66 
-0.0657543 -0.0534258 0.346023 107 111 123 
-0.0644026 -0.0540424 0.34696 93 97 112 
-0.0625359 -0.0511671 0.340639 48 48 58 
-0.0614695 -0.0522852 0.342771 72 77 90 
-0.0606742 -0.0529589 0.343122 76 82 95 
-0.0597568 -0.0560128 0.349724 105 112 134 
-0.0432624 -0.062008 0.351891 139 142 160 
-0.0410574 -0.0643325 0.355881 151 148 167 
-0.0414311 -0.0706476 0.367237 97 103 103 
-0.0405842 -0.0635795 0.354447 138 138 156 
-0.0395121 -0.0646222 0.355852 136 140 152 
-0.0382837 -0.0659249 0.356501 140 138 154 
-0.0385709 -0.0652043 0.355742 137 138 149 
-0.0686882 -0.0527265 0.344438 68 68 62 
-0.0621832 -0.0513193 0.339684 36 43 45 
-0.0417927 -0.0629135 0.351288 138 139 154 
-0.0405764 -0.071436 0.366695 93 96 97 
-0.0384228 -0.0652968 0.354589 138 139 152 
-0.036901 -0.0661752 0.355664 139 137 154 
-0.0625127 -0.0524124 0.338088 34 39 44 
-0.0606403 -0.0543713 0.340876 75 77 85 
-0.0457145 -0.062369 0.349494 144 142 153 
-0.0427294 -0.0630219 0.348948 135 139 153 
-0.0399806 -0.0643681 0.350785 134 137 154 
-0.0391211 -0.0649155 0.350693 134 135 150 
-0.0377272 -0.0663281 0.353761 139 137 153 
-0.0370158 -0.0665865 0.354458 136 137 152 
-0.0622986 -0.0539515 0.339231 69 67 81 
-0.0611553 -0.0519281 0.334416 127 125 134 
-0.0453942 -0.0626216 0.34847 144 142 153 
-0.0418338 -0.0633783 0.348619 138 137 152 
-0.0409068 -0.0639545 0.34837 134 137 149 
-0.0400025 -0.0646054 0.349168 138 136 150 
-0.0395419 -0.0643935 0.347757 143 141 152 
-0.0387756 -0.0662805 0.351992 135 138 155 
-0.0365952 -0.0680473 0.353205 138 137 148 
-0.0626328 -0.0535774 0.33734 41 41 43 
-0.060682 -0.0550034 0.339372 81 72 77 
-0.0604474 -0.0550073 0.337655 78 70 69 
-0.0392616 -0.0661464 0.349537 136 133 152 
-0.0384101 -0.0674365 0.351411 135 138 152 
-0.0364363 -0.0688642 0.352492 141 136 146 
-0.0610487 -0.0534343 0.333794 110 109 113 
-0.060796 -0.0531182 0.332823 133 135 145 
-0.0608429 -0.054865 0.335953 73 64 57 
-0.0611052 -0.0545606 0.334428 84 81 76 
-0.0608795 -0.0561111 0.335587 83 73 73 
-0.060732 -0.0543969 0.332876 127 120 129 
-0.0598827 -0.0600651 0.342881 88 97 110 
-0.0592113 -0.0601487 0.344214 88 101 112 
-0.0599225 -0.0601202 0.341518 94 98 110 
-0.0591206 -0.0614187 0.343026 92 100 112 
-0.0389829 -0.0694374 0.348241 128 136 151 
-0.060962 -0.0558777 0.332225 110 99 92 
-0.0591205 -0.06128 0.341421 92 96 108 
-0.039313 -0.0696432 0.347155 131 139 154 
-0.0616287 -0.0569809 0.33188 103 92 85 
-0.0614392 -0.0576839 0.333908 84 74 72 
-0.0615338 -0.057333 0.332895 95 84 75 
-0.0617288 -0.0592555 0.333183 91 86 94 
-0.0615826 -0.0578374 0.331023 107 93 89 
-0.0617792 -0.0603946 0.33249 112 107 116 
-0.0619378 -0.0601198 0.331378 94 90 91 
-0.0616252 -0.0597379 0.330459 90 81 83 
-0.061149 -0.0591572 0.329772 104 89 90 
-0.0619472 -0.0610615 0.330434 102 96 100 
-0.0609377 -0.0609231 0.329854 107 102 103 
-0.0599477 -0.0602859 0.329166 106 101 98 
-0.0589559 -0.0606344 0.329003 109 108 104 
-0.0618863 -0.0619244 0.329582 111 105 109 
-0.0602919 -0.0616991 0.329654 106 101 97 
-0.0974163 0.0364361 0.292583 131 129 138 
-0.0965981 0.0361624 0.29365 131 129 138 
-0.0963052 0.0368643 0.292008 131 129 138 
-0.0954886 0.0365901 0.293076 131 129 138 
-0.0941052 0.0370404 0.292571 131 129 138 
-0.102688 0.0352134 0.290501 131 129 138 
-0.102152 0.0338951 0.294084 131 129 138 
-0.10249 0.0345298 0.292553 131 129 138 
-0.102379 0.0349834 0.29157 131 129 138 
-0.101561 0.035986 0.289062 131 129 138 
-0.101477 0.0350015 0.292628 131 129 138 
-0.10117 0.0357496 0.291048 131 129 138 
-0.101199 0.0360021 0.29005 131 129 138 
-0.100457 0.0337792 0.2955 131 129 138 
-0.100732 0.0346749 0.293911 131 129 138 
-0.100113 0.0363976 0.290179 131 129 138 
-0.0996677 0.0334175 0.296432 131 129 138 
-0.0997909 0.0345449 0.294902 131 129 138 
-0.099462 0.0351308 0.294 131 129 138 
-0.0994225 0.0358772 0.292388 131 129 138 
-0.0993219 0.0363008 0.291362 131 129 138 
-0.099159 0.0368339 0.289742 131 129 138 
-0.0985805 0.0357612 0.29324 131 129 138 
-0.098281 0.0364859 0.291629 131 129 138 
-0.0982985 0.0367603 0.290668 131 129 138 
-0.0978934 0.0336935 0.296776 131 129 138 
-0.0977796 0.0353303 0.294525 131 129 138 
-0.0970982 0.0369313 0.290785 131 129 138 
-0.0967771 0.034518 0.296179 131 129 138 
-0.0967682 0.0354489 0.294688 131 129 138 
-0.0957825 0.0339993 0.296912 131 129 138 
-0.0956159 0.0351921 0.295522 131 129 138 
-0.0955407 0.036026 0.294049 131 129 138 
-0.0946258 0.0345612 0.296538 131 129 138 
-0.0947504 0.0356865 0.295012 131 129 138 
-0.0940082 0.0352133 0.295774 131 129 138 
-0.0936391 0.036227 0.294153 131 129 138 
-0.0934442 0.0366192 0.29325 131 129 138 
-0.0933815 0.0370234 0.291738 131 129 138 
-0.0932354 0.0368749 0.290629 131 129 138 
-0.0930226 0.0346731 0.296472 131 129 138 
-0.0928092 0.0357161 0.295022 131 129 138 
-0.0923209 0.0367958 0.292455 131 129 138 
-0.0920096 0.0351161 0.295757 131 129 138 
-0.091838 0.0359353 0.294424 131 129 138 
-0.0914403 0.0363927 0.293431 131 129 138 
-0.0913188 0.0368022 0.291691 131 129 138 
-0.0910958 0.0354622 0.295185 131 129 138 
-0.090231 0.0366636 0.292541 131 129 138 
-0.105237 0.0329529 0.292296 131 129 138 
-0.104124 0.0323607 0.294305 131 129 138 
-0.104295 0.0332672 0.29288 131 129 138 
-0.104146 0.0341451 0.291158 131 129 138 
-0.103954 0.0345397 0.290247 131 129 138 
-0.103433 0.0330613 0.294055 131 129 138 
-0.103354 0.0336948 0.293178 131 129 138 
-0.10238 0.032449 0.29557 131 129 138 
-0.100788 0.0319503 0.296872 131 129 138 
-0.10078 0.0327525 0.296226 131 129 138 
-0.0987427 0.0324916 0.297475 131 129 138 
-0.0970973 0.0326931 0.297546 131 129 138 
-0.0960575 0.0326019 0.297564 131 129 138 
-0.0947653 0.0334536 0.297346 131 129 138 
-0.0936417 0.0364877 0.288778 131 129 138 
-0.0919482 0.0367205 0.290575 131 129 138 
-0.0916573 0.033368 0.297469 131 129 138 
-0.0919835 0.0342728 0.296754 131 129 138 
-0.0907827 0.0339428 0.296846 131 129 138 
-0.0907672 0.0346137 0.296055 131 129 138 
-0.0903049 0.0357354 0.294339 131 129 138 
-0.0898631 0.0365455 0.290593 131 129 138 
-0.0896736 0.0345192 0.295809 131 129 138 
-0.0894146 0.0359831 0.293464 131 129 138 
-0.0891418 0.0363893 0.292584 131 129 138 
-0.0885277 0.0363405 0.291379 131 129 138 
-0.106089 0.031207 0.293737 131 129 138 
-0.10599 0.0318881 0.292921 131 129 138 
-0.105163 0.0308504 0.295007 131 129 138 
-0.104392 0.0308198 0.295668 131 129 138 
-0.103544 0.0307967 0.296201 131 129 138 
-0.103401 0.0315897 0.295553 131 129 138 
-0.102476 0.0304339 0.297178 131 129 138 
-0.101801 0.0313894 0.296655 131 129 138 
-0.100528 0.0303663 0.298242 131 129 138 
-0.0997168 0.0317239 0.297592 131 129 138 
-0.0988593 0.0305019 0.298663 131 129 138 
-0.0978821 0.0313836 0.298259 131 129 138 
-0.0957819 0.0359535 0.287999 131 129 138 
-0.0960729 0.0311784 0.298228 131 129 138 
-0.0946327 0.0363609 0.287839 131 129 138 
-0.0947609 0.0320142 0.297806 131 129 138 
-0.0935801 0.031608 0.298283 131 129 138 
-0.0918564 0.0322634 0.298104 131 129 138 
-0.0907824 0.032377 0.297964 131 129 138 
-0.0897505 0.0328668 0.297312 131 129 138 
-0.0888272 0.0333274 0.296454 131 129 138 
-0.0884595 0.0342318 0.29511 131 129 138 
-0.0884043 0.0347979 0.294133 131 129 138 
-0.0882715 0.035297 0.293218 131 129 138 
-0.0878305 0.0361956 0.290341 131 129 138 
-0.0876054 0.0353721 0.292356 131 129 138 
-0.106984 0.0293663 0.295054 131 129 138 
-0.106825 0.0304124 0.293859 131 129 138 
-0.105302 0.0288223 0.297202 131 129 138 
-0.105396 0.0300257 0.295752 131 129 138 
-0.104181 0.028687 0.298058 131 129 138 
-0.104585 0.0296854 0.296726 131 129 138 
-0.102663 0.028794 0.298713 131 129 138 
-0.101626 0.0288703 0.29911 131 129 138 
-0.10179 0.0295726 0.298292 131 129 138 
-0.0999552 0.0288944 0.299815 131 129 138 
-0.0988746 0.0288939 0.299967 131 129 138 
-0.097702 0.0294597 0.29959 131 129 138 
-0.0967813 0.0301834 0.298956 131 129 138 
-0.0958041 0.029595 0.2996 131 129 138 
-0.0949215 0.0301153 0.299118 131 129 138 
-0.0947884 0.0309069 0.298469 131 129 138 
-0.092745 0.0302974 0.299224 131 129 138 
-0.0925972 0.0311415 0.29865 131 129 138 
-0.0916096 0.0310081 0.298773 131 129 138 
-0.0897169 0.0316606 0.297989 131 129 138 
-0.0888378 0.0357407 0.288616 131 129 138 
-0.0887713 0.0320644 0.297349 131 129 138 
-0.0875247 0.0356336 0.288627 131 129 138 
-0.0879325 0.032564 0.296382 131 129 138 
-0.0876838 0.033145 0.2956 131 129 138 
-0.0870323 0.0338378 0.293829 131 129 138 
-0.0870525 0.0344195 0.293009 131 129 138 
-0.0866693 0.0351163 0.29119 131 129 138 
-0.0865738 0.035518 0.289269 131 129 138 
-0.0862464 0.0343484 0.291948 131 129 138 
-0.0859058 0.0352646 0.29013 131 129 138 
-0.10726 0.0278176 0.296433 131 129 138 
-0.106173 0.0273637 0.297735 131 129 138 
-0.106502 0.0286616 0.296369 131 129 138 
-0.105048 0.027229 0.298592 131 129 138 
-0.103419 0.0275617 0.299273 131 129 138 
-0.102506 0.0271429 0.300147 131 129 138 
-0.10176 0.0280989 0.299794 131 129 138 
-0.100696 0.0275459 0.300681 131 129 138 
-0.0994157 0.0273292 0.301265 131 129 138 
-0.0980551 0.0273522 0.301485 131 129 138 
-0.0977402 0.0286598 0.30039 131 129 138 
-0.0968813 0.0279192 0.301106 131 129 138 
-0.0956899 0.0286442 0.300506 131 129 138 
-0.0949809 0.0280555 0.301114 131 129 138 
-0.0947631 0.0293916 0.299902 131 129 138 
-0.0938278 0.0285768 0.300668 131 129 138 
-0.0929035 0.0293245 0.300062 131 129 138 
-0.0918651 0.0292118 0.300047 131 129 138 
-0.0907184 0.0298236 0.299282 131 129 138 
-0.0896529 0.0298929 0.299078 131 129 138 
-0.0887626 0.0305505 0.298339 131 129 138 
-0.0876596 0.0311195 0.297059 131 129 138 
-0.0873072 0.0317771 0.296246 131 129 138 
-0.0868929 0.0330249 0.294485 131 129 138 
-0.0864229 0.0329869 0.293589 131 129 138 
-0.0854224 0.0354636 0.288641 131 129 138 
-0.108059 0.0268799 0.296371 131 129 138 
-0.107007 0.0262199 0.297833 131 129 138 
-0.105353 0.0258128 0.299277 131 129 138 
-0.104228 0.0256793 0.300131 131 129 138 
-0.103665 0.026548 0.299915 131 129 138 
-0.102674 0.0259948 0.300941 131 129 138 
-0.101565 0.0257183 0.301713 131 129 138 
-0.100925 0.0266004 0.301383 131 129 138 
-0.0999811 0.0258044 0.302192 131 129 138 
-0.098952 0.0259346 0.302363 131 129 138 
-0.0977664 0.0260331 0.30237 131 129 138 
-0.0968087 0.0268114 0.301977 131 129 138 
-0.0949123 0.0269655 0.301835 131 129 138 
-0.093742 0.0275336 0.301451 131 129 138 
-0.092732 0.0275294 0.301407 131 129 138 
-0.0916812 0.0281849 0.300862 131 129 138 
-0.090597 0.0280687 0.300848 131 129 138 
-0.0907645 0.0289784 0.300021 131 129 138 
-0.0877027 0.0343482 0.285762 131 129 138 
-0.089069 0.0286029 0.300024 131 129 138 
-0.0878893 0.0296927 0.298151 131 129 138 
-0.0866143 0.0315805 0.295164 131 129 138 
-0.0861035 0.0320451 0.293187 131 129 138 
-0.085193 0.0344822 0.286745 131 129 138 
-0.0849007 0.033796 0.289479 131 129 138 
-0.107925 0.0246612 0.298253 131 129 138 
-0.108274 0.0259185 0.296809 131 129 138 
-0.106149 0.0247588 0.29951 131 129 138 
-0.104532 0.0242604 0.300823 131 129 138 
-0.103517 0.0245988 0.301122 131 129 138 
-0.102844 0.0241747 0.301814 131 129 138 
-0.101772 0.0244887 0.302373 131 129 138 
-0.100005 0.0242765 0.303203 131 129 138 
-0.0989172 0.0242772 0.303355 131 129 138 
-0.0978931 0.024946 0.302936 131 129 138 
-0.0967669 0.0256904 0.302488 131 129 138 
-0.0961019 0.024961 0.302914 131 129 138 
-0.0946317 0.0256004 0.302659 131 129 138 
-0.0938629 0.0263747 0.302202 131 129 138 
-0.0916736 0.0338526 0.284506 131 129 138 
-0.0927403 0.0256929 0.302602 131 129 138 
-0.0906918 0.0335033 0.284116 131 129 138 
-0.0918396 0.0262622 0.302178 131 129 138 
-0.090665 0.0269446 0.301506 131 129 138 
-0.0888726 0.0340807 0.285213 131 129 138 
-0.0895133 0.0275585 0.300739 131 129 138 
-0.0880611 0.0285587 0.299218 131 129 138 
-0.0868664 0.0298792 0.296768 131 129 138 
-0.0858504 0.0305778 0.293395 131 129 138 
-0.085226 0.0317073 0.290995 131 129 138 
-0.0851381 0.0323925 0.290163 131 129 138 
-0.0845834 0.0330026 0.288355 131 129 138 
-0.108748 0.0236708 0.298141 131 129 138 
-0.108239 0.0232372 0.298954 131 129 138 
-0.107369 0.0231269 0.299805 131 129 138 
-0.10631 0.0231082 0.300511 131 129 138 
-0.105461 0.0236797 0.300626 131 129 138 
-0.104395 0.0231754 0.301448 131 129 138 
-0.102579 0.0228005 0.302654 131 129 138 
-0.101458 0.0226696 0.303499 131 129 138 
-0.1009 0.0235421 0.303272 131 129 138 
-0.0997689 0.0228111 0.303916 131 129 138 
-0.0978481 0.0234362 0.303559 131 129 138 
-0.0967851 0.0242522 0.303188 131 129 138 
-0.0947892 0.0245144 0.303197 131 129 138 
-0.0937437 0.0246208 0.303218 131 129 138 
-0.0916659 0.0252608 0.302751 131 129 138 
-0.0905464 0.0256628 0.302132 131 129 138 
-0.0896122 0.0261214 0.301503 131 129 138 
-0.0884753 0.0267137 0.300524 131 129 138 
-0.0876157 0.0271365 0.299687 131 129 138 
-0.0866187 0.0284065 0.296987 131 129 138 
-0.0859976 0.029599 0.294253 131 129 138 
-0.0854409 0.0302025 0.292463 131 129 138 
-0.0851897 0.0307908 0.291664 131 129 138 
-0.0847511 0.0319341 0.289086 131 129 138 
-0.0846643 0.0335703 0.284984 131 129 138 
-0.0842615 0.0320204 0.287885 131 129 138 
-0.0841866 0.0328545 0.286325 131 129 138 
-0.108993 0.0225286 0.298793 131 129 138 
-0.107988 0.02163 0.300378 131 129 138 
-0.107095 0.0216808 0.301004 131 129 138 
-0.105351 0.0218024 0.301841 131 129 138 
-0.104252 0.0216901 0.302284 131 129 138 
-0.102532 0.0216766 0.303365 131 129 138 
-0.101191 0.0212936 0.304345 131 129 138 
-0.0997339 0.0216419 0.304563 131 129 138 
-0.0987122 0.022253 0.304203 131 129 138 
-0.0971519 0.0224882 0.303863 131 129 138 
-0.0956945 0.0230611 0.303512 131 129 138 
-0.0946944 0.0231006 0.303554 131 129 138 
-0.0934895 0.0232481 0.303618 131 129 138 
-0.0924171 0.0232044 0.303703 131 129 138 
-0.0917474 0.0238914 0.303392 131 129 138 
-0.0904738 0.0245544 0.302843 131 129 138 
-0.0893362 0.0251013 0.30198 131 129 138 
-0.0882614 0.0253146 0.301243 131 129 138 
-0.0873433 0.0257257 0.300163 131 129 138 
-0.0868227 0.0268809 0.298858 131 129 138 
-0.0856705 0.0286514 0.29387 131 129 138 
-0.0843998 0.0325633 0.283515 131 129 138 
-0.084545 0.0296074 0.291276 131 129 138 
-0.0844119 0.030733 0.289695 131 129 138 
-0.0838552 0.0316094 0.286869 131 129 138 
-0.0838098 0.032432 0.284808 131 129 138 
-0.109023 0.0206089 0.300074 131 129 138 
-0.108223 0.0206142 0.300772 131 129 138 
-0.107162 0.0200677 0.301951 131 129 138 
-0.106174 0.0201654 0.302502 131 129 138 
-0.104579 0.0201024 0.30322 131 129 138 
-0.103419 0.0201554 0.303877 131 129 138 
-0.103555 0.0209349 0.303135 131 129 138 
-0.102468 0.0205979 0.304141 131 129 138 
-0.101725 0.0200733 0.304861 131 129 138 
-0.100584 0.0201925 0.305168 131 129 138 
-0.0994487 0.0204008 0.305162 131 129 138 
-0.0987793 0.021044 0.304789 131 129 138 
-0.0969359 0.0209262 0.304466 131 129 138 
-0.0955627 0.0215386 0.304005 131 129 138 
-0.0924954 0.0315347 0.279993 131 129 138 
-0.0943672 0.0216401 0.304009 131 129 138 
-0.0916066 0.0223572 0.303861 131 129 138 
-0.0891085 0.0317248 0.280719 131 129 138 
-0.0903212 0.0230455 0.303341 131 129 138 
-0.0878167 0.0323448 0.281812 131 129 138 
-0.0891995 0.0234346 0.302698 131 129 138 
-0.0881275 0.0241128 0.301702 131 129 138 
-0.0873925 0.0243875 0.300999 131 129 138 
-0.086608 0.0250131 0.29989 131 129 138 
-0.0858 0.0258987 0.298248 131 129 138 
-0.0856805 0.0262956 0.297327 131 129 138 
-0.0854303 0.0270148 0.294328 131 129 138 
-0.0853397 0.0277025 0.293491 131 129 138 
-0.0847269 0.0284899 0.291951 131 129 138 
-0.0840519 0.0296909 0.290083 131 129 138 
-0.0835855 0.0297601 0.288397 131 129 138 
-0.0835219 0.0303621 0.287419 131 129 138 
-0.0834267 0.0313616 0.285623 131 129 138 
-0.0833869 0.0320695 0.283849 131 129 138 
-0.0834151 0.0322492 0.282691 131 129 138 
-0.109087 0.0195217 0.300554 131 129 138 
-0.108053 0.0185869 0.302532 131 129 138 
-0.108044 0.0193818 0.301818 131 129 138 
-0.106911 0.0184562 0.303387 131 129 138 
-0.105406 0.0187648 0.303985 131 129 138 
-0.10432 0.0190222 0.304176 131 129 138 
-0.103486 0.0185182 0.304799 131 129 138 
-0.10258 0.018732 0.305191 131 129 138 
-0.101426 0.0188755 0.305529 131 129 138 
-0.0998268 0.0190557 0.305691 131 129 138 
-0.0985176 0.0197236 0.30529 131 129 138 
-0.0975203 0.0197619 0.30519 131 129 138 
-0.0960188 0.0200098 0.305136 131 129 138 
-0.0943908 0.0199676 0.305299 131 129 138 
-0.0917862 0.0313591 0.278865 131 129 138 
-0.0934766 0.0205424 0.304867 131 129 138 
-0.0924351 0.0212183 0.30441 131 129 138 
-0.0906196 0.0214192 0.304216 131 129 138 
-0.0896542 0.0216373 0.303762 131 129 138 
-0.0892509 0.0224388 0.303125 131 129 138 
-0.0882724 0.0227941 0.302415 131 129 138 
-0.0871594 0.0232299 0.301391 131 129 138 
-0.0863511 0.0234603 0.300489 131 129 138 
-0.085714 0.0244001 0.298747 131 129 138 
-0.0851012 0.0256912 0.295242 131 129 138 
-0.0850836 0.0261083 0.294022 131 129 138 
-0.0851222 0.025091 0.297096 131 129 138 
-0.08437 0.0277035 0.291346 131 129 138 
-0.0832246 0.0287887 0.288434 131 129 138 
-0.0830898 0.030113 0.286178 131 129 138 
-0.0830248 0.0309095 0.284537 131 129 138 
-0.0830819 0.0315389 0.281192 131 129 138 
-0.0825655 0.0307535 0.283417 131 129 138 
-0.0825147 0.0313166 0.28236 131 129 138 
-0.109467 0.0178302 0.301385 131 129 138 
-0.109953 0.0185406 0.300053 131 129 138 
-0.108041 0.0173823 0.303172 131 129 138 
-0.106304 0.0173477 0.304228 131 129 138 
-0.105259 0.0173826 0.304561 131 129 138 
-0.103219 0.0171327 0.305669 131 129 138 
-0.10159 0.0176965 0.306023 131 129 138 
-0.100582 0.0176533 0.30625 131 129 138 
-0.0995607 0.0177169 0.306327 131 129 138 
-0.0983699 0.0177716 0.306275 131 129 138 
-0.096703 0.0184113 0.305879 131 129 138 
-0.0954998 0.0185137 0.305884 131 129 138 
-0.0936186 0.0192791 0.305671 131 129 138 
-0.090537 0.0309045 0.278346 131 129 138 
-0.0926264 0.0193033 0.305547 131 129 138 
-0.0914253 0.0199269 0.305209 131 129 138 
-0.0892681 0.0205264 0.304393 131 129 138 
-0.0884732 0.0211067 0.303519 131 129 138 
-0.087239 0.0220274 0.301984 131 129 138 
-0.0866009 0.0220393 0.301211 131 129 138 
-0.0856479 0.0232108 0.299373 131 129 138 
-0.0846621 0.02573 0.293103 131 129 138 
-0.0845446 0.0266985 0.29174 131 129 138 
-0.0836816 0.0315555 0.280186 131 129 138 
-0.0846824 0.0248692 0.295962 131 129 138 
-0.0839466 0.0273297 0.290416 131 129 138 
-0.0834339 0.0274602 0.289286 131 129 138 
-0.0828737 0.0280349 0.287398 131 129 138 
-0.0825227 0.0296362 0.28477 131 129 138 
-0.0820957 0.0311844 0.2803 131 129 138 
-0.110196 0.0174044 0.300748 131 129 138 
-0.108681 0.0159371 0.303432 131 129 138 
-0.109174 0.0164194 0.302675 131 129 138 
-0.10719 0.0159741 0.304539 131 129 138 
-0.10606 0.0159105 0.305046 131 129 138 
-0.104327 0.0162905 0.305499 131 129 138 
-0.10348 0.0160167 0.30596 131 129 138 
-0.101375 0.0161523 0.306696 131 129 138 
-0.100357 0.0163495 0.306963 131 129 138 
-0.0985833 0.016664 0.306997 131 129 138 
-0.0962955 0.0172878 0.30638 131 129 138 
-0.0934339 0.0180088 0.305953 131 129 138 
-0.0924149 0.0180818 0.306034 131 129 138 
-0.0894276 0.0299687 0.277084 131 129 138 
-0.0912227 0.0181544 0.305994 131 129 138 
-0.0904538 0.0188857 0.305588 131 129 138 
-0.0893738 0.0194688 0.304895 131 129 138 
-0.0883885 0.0198249 0.304186 131 129 138 
-0.0874543 0.0199961 0.303232 131 129 138 
-0.0871774 0.0206466 0.302518 131 129 138 
-0.0867599 0.021121 0.301738 131 129 138 
-0.0853018 0.022296 0.299087 131 129 138 
-0.0848918 0.0234001 0.297515 131 129 138 
-0.0841573 0.0239532 0.295532 131 129 138 
-0.0839462 0.0245746 0.293711 131 129 138 
-0.0839898 0.0253358 0.291735 131 129 138 
-0.0838683 0.0257411 0.290794 131 129 138 
-0.0836251 0.0262915 0.289914 131 129 138 
-0.0830586 0.0267929 0.288387 131 129 138 
-0.0823539 0.0283625 0.2856 131 129 138 
-0.0818128 0.0288574 0.28356 131 129 138 
-0.0817153 0.0295986 0.282763 131 129 138 
-0.0816152 0.0305346 0.281302 131 129 138 
-0.109515 0.0149292 0.303359 131 129 138 
-0.107815 0.01446 0.305154 131 129 138 
-0.106126 0.014285 0.306026 131 129 138 
-0.105214 0.015002 0.305894 131 129 138 
-0.104108 0.014457 0.306515 131 129 138 
-0.102304 0.0149321 0.306916 131 129 138 
-0.098438 0.015188 0.307609 131 129 138 
-0.0973941 0.0158979 0.307066 131 129 138 
-0.0954382 0.0160655 0.307107 131 129 138 
-0.09432 0.0161173 0.307317 131 129 138 
-0.0932177 0.0161219 0.307465 131 129 138 
-0.0914793 0.0166808 0.307106 131 129 138 
-0.0903992 0.0173014 0.306174 131 129 138 
-0.0892226 0.0179166 0.305386 131 129 138 
-0.0882134 0.0186048 0.304595 131 129 138 
-0.0846933 0.0300873 0.276884 131 129 138 
-0.0873605 0.0190071 0.303709 131 129 138 
-0.0866404 0.0197731 0.30233 131 129 138 
-0.0859041 0.0203171 0.300371 131 129 138 
-0.0855275 0.0210319 0.299596 131 129 138 
-0.0830478 0.0299686 0.276904 131 129 138 
-0.0840694 0.0223559 0.296223 131 129 138 
-0.083324 0.0243771 0.292311 131 129 138 
-0.0831826 0.025964 0.289049 131 129 138 
-0.0834162 0.023425 0.294161 131 129 138 
-0.0823459 0.0265207 0.287161 131 129 138 
-0.0818827 0.0268221 0.286093 131 129 138 
-0.0813441 0.0287029 0.282441 131 129 138 
-0.0812658 0.0295533 0.280842 131 129 138 
-0.0812962 0.0298914 0.278937 131 129 138 
-0.0808614 0.0285943 0.281385 131 129 138 
-0.109755 0.0139018 0.30378 131 129 138 
-0.108844 0.013455 0.304926 131 129 138 
-0.108111 0.0131758 0.305681 131 129 138 
-0.107187 0.0133933 0.306072 131 129 138 
-0.105306 0.0137147 0.30658 131 129 138 
-0.104089 0.0132472 0.307172 131 129 138 
-0.102345 0.0134437 0.307646 131 129 138 
-0.101317 0.0142869 0.307535 131 129 138 
-0.098453 0.0142136 0.308114 131 129 138 
-0.0973681 0.0146694 0.307687 131 129 138 
-0.0952228 0.014809 0.307857 131 129 138 
-0.0943756 0.0143376 0.308519 131 129 138 
-0.0934077 0.01506 0.308255 131 129 138 
-0.0926756 0.0144879 0.308917 131 129 138 
-0.0921887 0.0157119 0.30794 131 129 138 
-0.0913095 0.0150447 0.308364 131 129 138 
-0.0903099 0.0156783 0.307506 131 129 138 
-0.089689 0.0162191 0.306767 131 129 138 
-0.0886008 0.0164245 0.305883 131 129 138 
-0.087438 0.0169796 0.305011 131 129 138 
-0.0862577 0.017764 0.303566 131 129 138 
-0.0858603 0.0194355 0.301127 131 129 138 
-0.0843071 0.0208585 0.297317 131 129 138 
-0.0835433 0.0225958 0.294822 131 129 138 
-0.0827357 0.0238577 0.291366 131 129 138 
-0.0825232 0.0245378 0.289282 131 129 138 
-0.0820127 0.025218 0.287679 131 129 138 
-0.0808676 0.0290196 0.279616 131 129 138 
-0.0811722 0.0258543 0.285419 131 129 138 
-0.0810355 0.0269249 0.284151 131 129 138 
-0.10956 0.012131 0.305075 131 129 138 
-0.109064 0.0116471 0.305837 131 129 138 
-0.107969 0.0121256 0.306278 131 129 138 
-0.106976 0.0122723 0.306591 131 129 138 
-0.106165 0.0116686 0.307111 131 129 138 
-0.105087 0.0126111 0.307117 131 129 138 
-0.104086 0.0119872 0.307775 131 129 138 
-0.103146 0.012367 0.307934 131 129 138 
-0.101251 0.011915 0.308913 131 129 138 
-0.100341 0.0121341 0.309293 131 129 138 
-0.0983982 0.0121183 0.309533 131 129 138 
-0.0971857 0.0127013 0.30913 131 129 138 
-0.0973035 0.013558 0.30846 131 129 138 
-0.0957961 0.0127969 0.309008 131 129 138 
-0.0953134 0.0135965 0.308516 131 129 138 
-0.0932508 0.0135073 0.309066 131 129 138 
-0.0914722 0.01415 0.308945 131 129 138 
-0.0903852 0.014477 0.308356 131 129 138 
-0.0891199 0.0148122 0.307657 131 129 138 
-0.0879671 0.01532 0.306727 131 129 138 
-0.0870963 0.0158037 0.30573 131 129 138 
-0.0865786 0.0168719 0.304413 131 129 138 
-0.0855167 0.017602 0.302591 131 129 138 
-0.0850753 0.0191235 0.299805 131 129 138 
-0.0846123 0.0189425 0.29875 131 129 138 
-0.0845173 0.019636 0.297901 131 129 138 
-0.0833532 0.0205979 0.29531 131 129 138 
-0.0832487 0.0213385 0.294518 131 129 138 
-0.0827221 0.0217262 0.292398 131 129 138 
-0.082077 0.0228352 0.289886 131 129 138 
-0.0818973 0.024231 0.28816 131 129 138 
-0.0804853 0.0286762 0.277211 131 129 138 
-0.0805349 0.0274013 0.281105 131 129 138 
-0.109378 0.0104222 0.306034 131 129 138 
-0.107762 0.0106401 0.306798 131 129 138 
-0.105005 0.0109264 0.307797 131 129 138 
-0.1041 0.0106766 0.308326 131 129 138 
-0.102125 0.0109509 0.309055 131 129 138 
-0.101209 0.01075 0.309638 131 129 138 
-0.0992827 0.0103956 0.310728 131 129 138 
-0.0984835 0.0111518 0.310331 131 129 138 
-0.0966409 0.011172 0.310319 131 129 138 
-0.0952701 0.0116992 0.309728 131 129 138 
-0.0943441 0.0123634 0.309184 131 129 138 
-0.0926074 0.0123373 0.308873 131 129 138 
-0.0911747 0.0130435 0.308777 131 129 138 
-0.0893006 0.0138379 0.308143 131 129 138 
-0.0880368 0.0143799 0.307408 131 129 138 
-0.0870614 0.0146818 0.306653 131 129 138 
-0.0861597 0.0150189 0.305731 131 129 138 
-0.0858953 0.015611 0.304928 131 129 138 
-0.0854144 0.0165411 0.303426 131 129 138 
-0.0845487 0.0172346 0.301378 131 129 138 
-0.0844194 0.0176428 0.300461 131 129 138 
-0.0835717 0.0193276 0.295838 131 129 138 
-0.081489 0.0285934 0.274028 131 129 138 
-0.082927 0.0201702 0.294345 131 129 138 
