ply
format ascii 1.0
comment Created by CloudCompare v2.11 alpha (Anoia)
comment Created 20/2/13 下午11:30
obj_info Generated by CloudCompare!
element vertex 1177
property float x
property float y
property float z
property uchar red
property uchar green
property uchar blue
end_header
0.0764024 -0.0811313 0.314716 185 167 61 
0.07742 -0.0811335 0.314654 186 166 68 
0.0784379 -0.0811359 0.314591 186 168 62 
0.0794406 -0.0811224 0.314466 184 166 60 
0.0804751 -0.0811414 0.314466 183 167 63 
0.0814943 -0.0811447 0.314404 183 168 59 
0.082514 -0.0811481 0.314341 187 166 63 
0.0835508 -0.081168 0.314341 187 164 73 
0.0845884 -0.0811881 0.314341 189 167 71 
0.0863542 -0.0812546 0.314466 189 167 66 
0.0895496 -0.0813828 0.314716 186 162 65 
0.0905938 -0.0814046 0.314716 185 163 65 
0.0916389 -0.0814266 0.314716 189 163 64 
0.0933832 -0.0814641 0.314716 180 155 58 
0.0943934 -0.0814545 0.314591 175 148 56 
0.095442 -0.0814777 0.314591 173 146 57 
0.0964531 -0.0814687 0.314466 183 156 64 
0.0975033 -0.0814924 0.314466 185 164 64 
0.0985545 -0.0815164 0.314466 185 164 63 
0.0996069 -0.0815408 0.314466 184 166 61 
0.10062 -0.081533 0.314341 184 166 60 
0.119592 -0.0814552 0.314841 166 145 54 
0.13083 -0.0811192 0.314966 109 94 23 
0.132522 -0.081095 0.314654 175 149 77 
0.133538 -0.0810809 0.314466 180 158 62 
0.136488 -0.0818737 0.314466 175 149 68 
0.138636 -0.0819133 0.314341 132 57 38 
0.140421 -0.0819419 0.314216 137 43 53 
0.0575951 -0.0808418 0.314716 182 159 72 
0.0585919 -0.0808233 0.314591 183 160 60 
0.0596123 -0.0808372 0.314591 185 160 61 
0.0606573 -0.0808835 0.314716 186 162 65 
0.0635372 -0.0803859 0.314383 187 166 56 
0.0666823 -0.0801629 0.314216 188 166 59 
0.120697 -0.080822 0.314966 171 145 64 
0.119625 -0.0798841 0.314091 183 158 72 
0.121806 -0.0792818 0.314216 180 157 70 
0.123629 -0.079348 0.314279 105 79 30 
0.151022 -0.0406395 0.314716 127 117 37 
0.14773 -0.0384494 0.314091 124 107 48 
0.147265 -0.0371379 0.314716 118 106 46 
0.00802211 -0.0364913 0.314279 82 20 21 
0.145548 -0.0363722 0.314216 125 113 53 
0.00836079 -0.0355305 0.314591 81 19 20 
0.00935652 -0.0342018 0.314591 81 20 23 
0.143318 -0.0342857 0.314216 127 114 61 
0.144227 -0.0346786 0.314591 128 116 61 
0.0100085 -0.0334978 0.314216 81 20 23 
0.144386 -0.0336886 0.314966 127 115 59 
0.0103555 -0.032554 0.314716 80 20 21 
0.141434 -0.0322819 0.314966 125 113 55 
0.0113339 -0.0315075 0.314216 79 19 17 
0.0120058 -0.0302046 0.314466 70 20 17 
0.138887 -0.0301299 0.314216 131 113 63 
0.139452 -0.0851563 0.315966 128 51 57 
0.140535 -0.0851779 0.315904 133 56 64 
0.141632 -0.085553 0.315841 139 72 80 
0.142535 -0.0851207 0.315404 129 89 91 
0.137553 -0.0843718 0.315904 116 45 50 
0.138578 -0.084359 0.315716 120 46 51 
0.0857492 -0.0830009 0.315966 190 163 67 
0.0871426 -0.0830292 0.315966 187 164 62 
0.0955393 -0.0832099 0.315966 177 154 54 
0.0965553 -0.083201 0.315841 186 163 63 
0.0975714 -0.0831923 0.315716 183 164 63 
0.0990573 -0.0832909 0.315966 179 159 65 
0.103629 -0.0833849 0.315904 138 111 40 
0.104629 -0.0833618 0.315716 134 120 74 
0.107551 -0.0834996 0.315966 89 72 45 
0.111426 -0.0835691 0.315841 134 115 51 
0.112408 -0.0835316 0.315591 131 111 44 
0.114598 -0.0836231 0.315716 179 156 65 
0.116123 -0.0837291 0.315966 186 162 65 
0.119605 -0.0830667 0.315716 173 154 69 
0.121142 -0.0831739 0.315966 167 151 58 
0.135715 -0.0836233 0.315966 190 136 71 
0.136656 -0.0835603 0.315591 125 50 39 
0.140548 -0.0835971 0.315216 137 43 55 
0.0725485 -0.0820373 0.315841 185 164 61 
0.0735822 -0.0820547 0.315841 185 164 61 
0.074587 -0.08204 0.315716 187 167 61 
0.0756068 -0.0820417 0.315654 184 166 56 
0.0765967 -0.0820113 0.315466 186 166 58 
0.0776168 -0.0820135 0.315404 185 166 65 
0.0786375 -0.082016 0.315341 185 166 63 
0.0799883 -0.082009 0.315216 185 167 61 
0.0814752 -0.082477 0.315591 185 165 65 
0.0825071 -0.0824888 0.31556 185 163 65 
0.0835395 -0.0825008 0.315529 187 163 70 
0.0876519 -0.0821903 0.315341 188 165 65 
0.0904753 -0.0822808 0.315466 185 164 63 
0.0915229 -0.0823031 0.315466 186 162 65 
0.0925713 -0.0823256 0.315466 190 163 67 
0.0936209 -0.0823485 0.315466 178 152 56 
0.0946339 -0.082339 0.315341 175 148 56 
0.0956472 -0.0823298 0.315216 176 150 55 
0.096699 -0.0823535 0.315216 185 162 62 
0.0984544 -0.0823938 0.315216 185 164 63 
0.100605 -0.0824758 0.315341 184 166 60 
0.101622 -0.0824683 0.315216 178 155 55 
0.10874 -0.0826769 0.315341 111 97 49 
0.117261 -0.0828743 0.315216 178 156 58 
0.122566 -0.0825168 0.315966 178 160 68 
0.129808 -0.0820331 0.315966 155 139 64 
0.131504 -0.0820082 0.315654 131 111 50 
0.132389 -0.0828142 0.315966 147 117 48 
0.133435 -0.0828162 0.315841 180 155 67 
0.134455 -0.0828023 0.315654 180 156 64 
0.135476 -0.0827886 0.315466 186 151 68 
0.0587641 -0.0817317 0.315466 182 158 88 
0.06047 -0.0817553 0.315466 180 158 71 
0.0615187 -0.0818022 0.315591 179 158 67 
0.0625442 -0.0818169 0.315591 184 160 55 
0.0635954 -0.0818643 0.315716 187 162 56 
0.0646225 -0.0818796 0.315716 185 163 62 
0.0656502 -0.081895 0.315716 186 163 61 
0.0673647 -0.0819214 0.315716 185 165 55 
0.0683942 -0.0819376 0.315716 184 166 58 
0.0694246 -0.081954 0.315716 184 164 54 
0.0704555 -0.0819707 0.315716 187 166 54 
0.0714873 -0.0819876 0.315716 183 164 51 
0.12163 -0.0816678 0.315466 179 156 67 
0.124597 -0.0811174 0.315716 99 69 35 
0.126708 -0.0814827 0.315529 130 117 60 
0.127571 -0.0819345 0.315841 129 116 65 
0.128499 -0.0815208 0.315466 112 94 41 
0.13354 -0.0819795 0.315279 178 154 67 
0.123657 -0.0802711 0.315216 115 83 38 
0.155228 -0.0435876 0.315591 135 118 50 
0.152764 -0.0414195 0.315216 131 121 37 
0.15155 -0.0400918 0.315841 129 115 41 
0.149694 -0.0392835 0.315091 129 114 45 
0.150099 -0.0387001 0.315966 124 107 48 
0.148582 -0.0366039 0.315966 125 113 53 
0.14783 -0.0359029 0.315966 127 115 57 
0.00838641 -0.0346429 0.315591 82 19 19 
0.145476 -0.0344669 0.315716 127 114 61 
0.00872908 -0.0336827 0.315966 81 19 20 
0.143241 -0.0323746 0.315716 127 114 61 
0.0103787 -0.0316316 0.315466 81 20 19 
0.0113774 -0.0302999 0.315466 79 19 17 
0.0120329 -0.0289449 0.315216 70 19 19 
0.138382 -0.0860488 0.316841 114 45 56 
0.140577 -0.0868 0.316716 129 70 75 
0.136878 -0.0852915 0.316841 109 42 45 
0.139699 -0.0859981 0.316466 131 55 68 
0.0888326 -0.0840139 0.316966 189 163 62 
0.0905847 -0.0840512 0.316966 182 158 63 
0.0916372 -0.0840739 0.316966 169 141 54 
0.0933938 -0.0841125 0.316966 172 147 54 
0.0944118 -0.0841029 0.316841 184 164 58 
0.0954111 -0.084077 0.316654 185 165 61 
0.0964103 -0.0840513 0.316466 183 163 65 
0.0985249 -0.0841005 0.316466 192 167 88 
0.110367 -0.0844939 0.316841 153 136 66 
0.111396 -0.0844892 0.316716 152 138 51 
0.113635 -0.0846143 0.316966 141 116 41 
0.122513 -0.0840875 0.316654 176 158 79 
0.123625 -0.0841363 0.316716 175 154 65 
0.125541 -0.0842573 0.316966 168 150 52 
0.134694 -0.0845455 0.316966 157 118 44 
0.135639 -0.0844817 0.316591 129 56 35 
0.136583 -0.0844182 0.316216 121 43 41 
0.0635239 -0.0835593 0.316966 184 159 69 
0.0815022 -0.0838663 0.316966 185 164 61 
0.0825466 -0.0838865 0.316966 186 163 63 
0.083592 -0.083907 0.316966 187 163 66 
0.0846383 -0.0839278 0.316966 186 162 65 
0.0893065 -0.0831383 0.316216 188 164 67 
0.0903555 -0.0831605 0.316216 185 163 65 
0.0914053 -0.0831829 0.316216 185 161 66 
0.0924562 -0.0832057 0.316216 185 158 66 
0.0935081 -0.0832288 0.316216 179 152 56 
0.0945422 -0.0832357 0.316154 172 148 53 
0.100547 -0.0833902 0.316216 177 155 59 
0.101608 -0.0834156 0.316216 165 140 48 
0.102669 -0.0834414 0.316216 153 124 44 
0.110487 -0.0836398 0.316216 122 112 42 
0.1177 -0.0838689 0.316341 126 104 20 
0.120632 -0.0839847 0.316466 107 81 23 
0.126511 -0.0835217 0.316716 135 117 29 
0.127604 -0.0835549 0.316716 125 108 34 
0.128699 -0.0835885 0.316716 131 115 42 
0.130527 -0.0836453 0.316716 116 85 28 
0.131574 -0.0836468 0.316591 104 75 22 
0.132621 -0.0836487 0.316466 151 124 47 
0.133722 -0.0836839 0.316466 182 157 67 
0.0616504 -0.08265 0.316216 176 158 77 
0.0633885 -0.0827077 0.316341 186 160 61 
0.0644175 -0.0827231 0.316341 184 163 62 
0.0654732 -0.0827714 0.316466 184 162 57 
0.0665039 -0.0827873 0.316466 186 165 53 
0.0675355 -0.0828034 0.316466 182 164 54 
0.0685676 -0.0828198 0.316466 183 165 59 
0.0696006 -0.0828364 0.316466 183 163 53 
0.0706342 -0.0828533 0.316466 186 165 51 
0.0724157 -0.0829476 0.316716 184 164 56 
0.0734522 -0.0829652 0.316716 185 164 61 
0.0744746 -0.0829667 0.316654 185 165 60 
0.0754975 -0.0829684 0.316591 186 164 55 
0.0764905 -0.0829377 0.316404 186 164 56 
0.0774832 -0.0829073 0.316216 183 164 63 
0.078522 -0.0829262 0.316216 184 165 64 
0.0795615 -0.0829454 0.316216 187 166 63 
0.124499 -0.0826513 0.316279 145 123 57 
0.125662 -0.0827326 0.316466 162 141 70 
0.154881 -0.0423036 0.316466 131 121 37 
0.154119 -0.0415958 0.316466 131 121 37 
0.152658 -0.0401984 0.316591 129 115 41 
0.151201 -0.0388027 0.316716 124 107 48 
0.150374 -0.0373895 0.316591 118 106 46 
0.147545 -0.0353141 0.316966 130 118 62 
0.149492 -0.0359647 0.316341 127 115 57 
0.00841524 -0.0324302 0.316779 83 17 21 
0.00939876 -0.0323609 0.316091 83 17 22 
0.00941436 -0.0314148 0.316654 83 18 20 
0.0104081 -0.0303888 0.316404 79 19 20 
0.138156 -0.0870388 0.317966 116 49 52 
0.135907 -0.0862536 0.317966 117 44 45 
0.137489 -0.0861466 0.317341 109 47 51 
0.139423 -0.0869534 0.317466 124 53 62 
0.0919056 -0.0850019 0.317841 166 138 53 
0.0933147 -0.0850331 0.317841 180 155 65 
0.0943542 -0.0850402 0.317779 183 163 56 
0.0953567 -0.0850141 0.317591 184 166 60 
0.0969001 -0.0858448 0.317966 178 159 76 
0.0985935 -0.0858193 0.317716 164 142 68 
0.0996088 -0.0854627 0.317591 156 127 57 
0.101394 -0.0851731 0.317654 182 162 68 
0.10256 -0.0852831 0.317966 185 161 66 
0.108985 -0.0854472 0.317966 105 80 46 
0.110625 -0.0853773 0.317529 141 113 50 
0.111679 -0.0853895 0.317466 170 152 64 
0.113204 -0.0854961 0.317716 176 155 66 
0.1227 -0.0858339 0.317966 116 92 10 
0.123891 -0.0850055 0.317341 174 156 68 
0.127687 -0.0852176 0.317716 182 162 54 
0.130669 -0.0853434 0.317841 182 160 53 
0.133613 -0.0854383 0.317841 184 143 65 
0.134641 -0.0854242 0.317654 148 98 37 
0.135615 -0.0853767 0.317341 127 53 40 
0.0664431 -0.0844896 0.317716 180 158 65 
0.0674788 -0.0845061 0.317716 180 164 60 
0.0685152 -0.0845228 0.317716 179 162 57 
0.0695796 -0.0845731 0.317841 183 161 54 
0.0824713 -0.0848385 0.317966 186 162 60 
0.0835199 -0.0848592 0.317966 186 163 61 
0.0845694 -0.0848802 0.317966 186 164 59 
0.0856197 -0.0849014 0.317966 190 165 57 
0.086637 -0.0848896 0.317841 189 164 58 
0.0876887 -0.0849115 0.317841 188 164 67 
0.0894439 -0.0849486 0.317841 183 159 65 
0.0904626 -0.0849378 0.317716 181 157 64 
0.0966551 -0.0849462 0.317216 178 160 68 
0.102301 -0.0843848 0.317216 180 152 63 
0.103366 -0.084411 0.317216 167 139 54 
0.104391 -0.0844042 0.317091 118 91 28 
0.108709 -0.0845468 0.317216 134 112 88 
0.116603 -0.0847611 0.317216 186 162 69 
0.121664 -0.0849071 0.317216 114 82 37 
0.129657 -0.0844475 0.317216 186 170 81 
0.13149 -0.0845054 0.317216 182 160 66 
0.132591 -0.0845406 0.317216 178 155 64 
0.0645806 -0.0836077 0.317091 183 159 62 
0.065626 -0.0836401 0.317154 184 159 53 
0.0694315 -0.0837168 0.317216 183 161 52 
0.0715606 -0.0838171 0.317466 184 161 43 
0.0733493 -0.0839126 0.317716 186 164 55 
0.0743897 -0.0839307 0.317716 185 163 58 
0.0753715 -0.0838829 0.317466 185 160 54 
0.0763825 -0.0838685 0.317341 185 160 52 
0.0773936 -0.0838543 0.317216 184 162 53 
0.0784355 -0.0838734 0.317216 185 164 61 
0.0794626 -0.0838763 0.317154 184 165 64 
0.0804902 -0.0838794 0.317091 186 165 64 
0.154533 -0.0410137 0.317341 127 117 37 
0.153709 -0.0402892 0.317216 129 115 41 
0.155518 -0.0403919 0.317841 129 115 41 
0.151548 -0.0381988 0.317466 122 105 48 
0.152452 -0.0385951 0.317779 123 106 48 
0.00677238 -0.0365818 0.317966 81 19 20 
0.151528 -0.0368075 0.317466 125 113 53 
0.14915 -0.0353605 0.317216 130 118 62 
0.14748 -0.0343447 0.317654 127 114 60 
0.139652 -0.0880124 0.318778 125 57 63 
0.134505 -0.087174 0.318966 119 47 45 
0.135564 -0.087177 0.318841 111 44 47 
0.13657 -0.0871463 0.318591 113 44 55 
0.0978552 -0.0867639 0.318716 121 94 39 
0.100699 -0.0868329 0.318716 177 157 61 
0.102337 -0.0863958 0.318674 183 163 64 
0.103533 -0.0862029 0.318716 182 159 59 
0.105044 -0.0863068 0.318966 173 151 57 
0.109663 -0.0863948 0.318841 130 106 47 
0.110655 -0.086356 0.318591 108 79 15 
0.113491 -0.0864011 0.318466 179 158 69 
0.116563 -0.0866182 0.318966 155 131 49 
0.119419 -0.0866683 0.318841 115 98 32 
0.120462 -0.0866665 0.318716 157 140 63 
0.121554 -0.086699 0.318716 166 150 57 
0.123377 -0.086754 0.318716 161 143 55 
0.124472 -0.0867875 0.318716 125 105 27 
0.126415 -0.0866124 0.318716 163 140 58 
0.131687 -0.0862431 0.318466 181 159 54 
0.133531 -0.0863033 0.318466 173 125 57 
0.134587 -0.086306 0.318341 123 62 9 
0.0705044 -0.0855446 0.318841 183 160 60 
0.0837965 -0.0858229 0.318966 186 164 57 
0.085552 -0.0858585 0.318966 187 164 56 
0.0866065 -0.0858803 0.318966 188 163 55 
0.0876276 -0.0858687 0.318841 187 163 62 
0.0886487 -0.0858574 0.318716 187 163 68 
0.0904101 -0.0858953 0.318716 176 148 61 
0.0914682 -0.0859185 0.318716 164 139 51 
0.0925274 -0.085942 0.318716 173 148 58 
0.0935874 -0.0859657 0.318716 183 160 60 
0.0945929 -0.0859392 0.318528 186 164 55 
0.0955982 -0.085913 0.318341 183 165 59 
0.106544 -0.0854323 0.318154 133 116 47 
0.107596 -0.0854433 0.318091 101 79 42 
0.114779 -0.0856369 0.318091 179 158 67 
0.117715 -0.0857523 0.318216 158 132 51 
0.120568 -0.0858028 0.318091 160 141 58 
0.074636 -0.0848889 0.318716 182 161 47 
0.0756361 -0.0848576 0.318528 186 160 48 
0.0766358 -0.0848265 0.318341 184 160 49 
0.0776503 -0.0848123 0.318216 184 160 49 
0.0786957 -0.0848316 0.318216 185 164 61 
0.0804084 -0.0848313 0.318091 185 165 64 
0.0814556 -0.0848514 0.318091 184 163 60 
0.158636 -0.0443946 0.318653 135 118 51 
0.157385 -0.0432969 0.318466 134 118 43 
0.158391 -0.0433779 0.318966 134 118 43 
0.156689 -0.0415575 0.318653 130 120 37 
0.157607 -0.0419613 0.318966 131 121 37 
0.156702 -0.0405148 0.318716 129 115 41 
0.156746 -0.0394797 0.318841 128 112 46 
0.153589 -0.0383555 0.318591 122 105 48 
0.152706 -0.0376168 0.318341 118 106 46 
0.153754 -0.0373514 0.318966 121 109 49 
0.00679024 -0.0360085 0.318841 81 19 18 
0.120613 -0.0884136 0.319966 110 88 20 
0.123539 -0.0885029 0.319966 109 83 39 
0.131563 -0.0880153 0.319841 185 137 73 
0.136691 -0.0884949 0.319653 115 44 56 
0.138595 -0.0889336 0.319716 131 60 64 
0.139715 -0.088973 0.319716 133 87 83 
0.0989693 -0.0878245 0.319966 105 80 31 
0.101748 -0.0878264 0.319716 176 155 64 
0.103636 -0.0876291 0.319674 178 154 57 
0.104511 -0.0871271 0.319466 171 148 48 
0.109709 -0.0873956 0.319966 183 164 81 
0.111383 -0.0873422 0.319591 184 160 66 
0.112422 -0.0873378 0.319466 183 158 68 
0.114592 -0.0873985 0.319466 182 161 90 
0.118652 -0.0875649 0.319653 117 94 35 
0.119674 -0.0875457 0.319466 112 89 30 
0.121426 -0.0875488 0.319278 159 138 66 
0.122496 -0.0875648 0.319216 169 149 73 
0.123592 -0.0875983 0.319216 167 152 64 
0.124739 -0.0876665 0.319341 179 162 78 
0.126353 -0.0878152 0.319716 176 154 70 
0.128498 -0.087496 0.319591 185 159 68 
0.130544 -0.0871088 0.319216 183 159 64 
0.133447 -0.0871712 0.319091 125 59 39 
0.0707097 -0.0864755 0.319716 180 161 89 
0.0721598 -0.0865671 0.319966 186 163 74 
0.0844255 -0.0867984 0.319966 185 164 50 
0.0854822 -0.0868201 0.319966 183 161 52 
0.08654 -0.0868421 0.319966 188 163 55 
0.0875985 -0.0868644 0.319966 185 160 52 
0.0886235 -0.086853 0.319841 184 160 65 
0.0896485 -0.0868419 0.319716 173 150 59 
0.0913989 -0.0868637 0.319653 169 143 55 
0.092443 -0.0868704 0.319591 185 163 56 
0.0946068 -0.0869527 0.319716 183 161 52 
0.0963264 -0.086943 0.319528 180 162 77 
0.10656 -0.0864113 0.319216 173 156 61 
0.107636 -0.0864393 0.319216 136 118 45 
0.108671 -0.0864338 0.319091 89 71 10 
0.0719787 -0.0856689 0.319216 184 160 49 
0.0734288 -0.0857601 0.319466 187 164 46 
0.0755517 -0.0858309 0.319591 185 160 45 
0.0765849 -0.0858331 0.319528 186 160 47 
0.0775882 -0.085802 0.319341 185 160 43 
0.0786064 -0.085788 0.319216 185 161 47 
0.0796558 -0.0858079 0.319216 185 165 57 
0.0813908 -0.0858248 0.319153 185 163 57 
0.0824262 -0.0858286 0.319091 183 161 56 
0.16084 -0.0455628 0.319216 138 116 50 
0.160001 -0.0448275 0.319091 135 118 52 
0.158558 -0.0423744 0.319341 131 121 37 
0.15885 -0.0414014 0.319966 129 119 37 
0.157768 -0.0406062 0.319341 129 115 41 
0.155384 -0.0374015 0.319216 121 109 49 
0.138039 -0.0913596 0.320841 147 121 121 
0.138491 -0.0904918 0.320216 162 111 111 
0.12165 -0.0893544 0.320716 180 158 76 
0.124683 -0.0895152 0.320966 115 84 30 
0.135398 -0.0898511 0.320903 108 45 49 
0.136438 -0.0898372 0.320716 118 53 55 
0.137344 -0.0897361 0.320216 128 53 66 
0.140015 -0.0898636 0.320341 150 100 93 
0.0971337 -0.0880473 0.320966 108 89 15 
0.100729 -0.0888402 0.320966 109 80 25 
0.102443 -0.0888162 0.320716 119 94 42 
0.104506 -0.0884495 0.320466 136 112 33 
0.108626 -0.0883379 0.320966 182 161 58 
0.11039 -0.0883524 0.320841 186 161 64 
0.111389 -0.0883133 0.320591 187 160 66 
0.115743 -0.088436 0.320591 120 92 34 
0.11861 -0.0884864 0.320466 174 158 83 
0.119635 -0.0884671 0.320278 140 119 49 
0.126673 -0.0887333 0.320466 180 155 65 
0.128247 -0.0888496 0.320716 183 159 66 
0.132587 -0.0889257 0.320466 123 56 23 
0.135455 -0.0889565 0.320216 102 42 50 
0.0730978 -0.0875495 0.320966 184 162 80 
0.0829387 -0.0877357 0.320966 184 160 47 
0.0843505 -0.0877644 0.320966 185 162 46 
0.0854106 -0.0877863 0.320966 185 161 48 
0.0864714 -0.0878085 0.320966 188 163 55 
0.0875332 -0.087831 0.320966 186 159 48 
0.0885615 -0.0878195 0.320841 177 151 39 
0.0896073 -0.0878255 0.320778 175 149 43 
0.0906537 -0.0878318 0.320716 176 149 53 
0.0924291 -0.0878715 0.320716 185 163 54 
0.10759 -0.0873721 0.320091 177 160 63 
0.0736423 -0.0866931 0.320341 186 164 57 
0.075421 -0.0867583 0.320466 184 160 46 
0.0764719 -0.0867774 0.320466 188 162 50 
0.0774935 -0.086763 0.320341 184 160 46 
0.0785151 -0.0867489 0.320216 186 161 46 
0.0795678 -0.086769 0.320216 184 161 51 
0.0806212 -0.0867893 0.320216 183 161 52 
0.0816596 -0.0867929 0.320153 182 160 51 
0.0826985 -0.0867969 0.320091 182 160 51 
0.136995 -0.0923111 0.321841 141 112 102 
0.135524 -0.091574 0.321966 122 48 58 
0.121412 -0.0903946 0.321966 170 145 66 
0.12362 -0.0904632 0.321966 166 148 71 
0.135635 -0.0907089 0.321403 117 47 55 
0.0988876 -0.0890637 0.321966 116 93 18 
0.1025 -0.0898622 0.321966 92 77 26 
0.106646 -0.0891267 0.321466 177 156 69 
0.109709 -0.0893432 0.321966 183 160 60 
0.111416 -0.0893065 0.321653 183 158 70 
0.11244 -0.0892848 0.321466 182 159 70 
0.114667 -0.0893814 0.321591 154 122 50 
0.117631 -0.0895009 0.321716 111 87 35 
0.126304 -0.0896665 0.321341 167 140 66 
0.128671 -0.0898424 0.321716 181 156 66 
0.131538 -0.08987 0.321466 135 79 40 
0.133666 -0.089875 0.321216 109 41 47 
0.0765038 -0.0885823 0.321966 185 163 54 
0.0775305 -0.0885678 0.321841 183 161 56 
0.0785573 -0.0885536 0.321716 179 160 51 
0.079615 -0.088574 0.321716 180 160 50 
0.0813797 -0.0886088 0.321716 182 161 51 
0.0835492 -0.0887032 0.321903 184 159 42 
0.0846279 -0.0887423 0.321966 184 162 39 
0.0864009 -0.0887794 0.321966 185 161 48 
0.0874659 -0.0888021 0.321966 185 161 48 
0.0885319 -0.0888251 0.321966 183 159 38 
0.089564 -0.0888139 0.321841 184 160 38 
0.0916999 -0.0888614 0.321841 186 159 54 
0.0931623 -0.0889284 0.321966 185 164 52 
0.0957434 -0.0880479 0.321091 181 160 57 
0.0745573 -0.0876428 0.321216 182 160 62 
0.0756397 -0.0876961 0.321341 184 161 50 
0.0766639 -0.0876814 0.321216 187 163 52 
0.0783913 -0.0876803 0.321091 184 160 49 
0.0794467 -0.0877004 0.321091 185 160 52 
0.080503 -0.087721 0.321091 184 162 53 
0.0815601 -0.0877417 0.321091 182 161 49 
0.135998 -0.0933028 0.322966 132 69 75 
0.135438 -0.0924597 0.322591 127 53 61 
0.133645 -0.0917451 0.322841 96 44 51 
0.134611 -0.0916772 0.322466 112 45 54 
0.0813067 -0.0902889 0.322716 182 163 62 
0.0824022 -0.0903455 0.322841 183 159 64 
0.0998939 -0.0900336 0.322841 158 134 41 
0.104283 -0.0908906 0.322966 106 76 30 
0.107805 -0.0902046 0.322716 182 160 53 
0.109342 -0.090314 0.322966 185 163 56 
0.11039 -0.090309 0.322841 182 161 60 
0.11144 -0.0903044 0.322716 181 160 59 
0.112446 -0.0902652 0.322466 159 134 63 
0.113539 -0.0902962 0.322466 185 160 83 
0.119533 -0.0905731 0.322841 104 80 37 
0.12045 -0.0904662 0.322341 132 105 52 
0.125241 -0.0906151 0.322341 113 88 23 
0.127659 -0.0908269 0.322841 180 150 62 
0.130583 -0.0908891 0.322716 128 68 24 
0.131573 -0.0908383 0.322403 113 47 43 
0.132615 -0.0908231 0.322216 98 41 48 
0.0804593 -0.08943 0.322216 182 162 56 
0.0833551 -0.0895566 0.322466 185 158 51 
0.0844684 -0.0896307 0.322653 185 162 46 
0.0855505 -0.0896704 0.322716 182 163 37 
0.090607 -0.0898484 0.322966 185 160 41 
0.094701 -0.089065 0.322341 179 159 53 
0.0963194 -0.0892713 0.322966 158 135 44 
0.0977561 -0.0893055 0.322966 150 131 59 
0.101479 -0.089887 0.322153 115 98 37 
0.13564 -0.0942534 0.32384 133 98 95 
0.13481 -0.0934663 0.323715 126 56 58 
0.134523 -0.0925636 0.32309 119 52 55 
0.0836754 -0.0912862 0.32359 188 161 69 
0.0851985 -0.0914222 0.323965 184 164 66 
0.10658 -0.0910539 0.32334 107 77 2 
0.1097 -0.0913092 0.323965 181 163 45 
0.111483 -0.0913249 0.32384 147 126 35 
0.112536 -0.0913206 0.323715 106 79 14 
0.114733 -0.0913836 0.323715 176 148 88 
0.120664 -0.0915944 0.32384 121 87 36 
0.121631 -0.0915225 0.323465 143 111 48 
0.122644 -0.0914861 0.323215 178 157 68 
0.124219 -0.0916034 0.323465 180 163 68 
0.126639 -0.0918161 0.323965 183 156 60 
0.129619 -0.0919135 0.323965 118 65 9 
0.131335 -0.0918693 0.32359 114 48 41 
0.132355 -0.0918361 0.32334 100 46 49 
0.0842747 -0.0904873 0.323215 183 161 52 
0.0854082 -0.0905798 0.323465 183 163 47 
0.0886868 -0.0907193 0.323715 183 159 48 
0.0916206 -0.0908537 0.323965 185 161 48 
0.0943303 -0.0900693 0.323465 164 142 37 
0.0987976 -0.0903118 0.323965 134 109 46 
0.10155 -0.0909565 0.323465 145 133 61 
0.102575 -0.0909315 0.323278 129 117 57 
0.116688 -0.0905559 0.32309 177 158 75 
0.118546 -0.0906277 0.323153 111 84 31 
0.13528 -0.0952079 0.324715 133 123 121 
0.1345 -0.0944546 0.324715 129 55 56 
0.133345 -0.0936893 0.324715 120 49 54 
0.0868425 -0.0923769 0.324715 186 166 56 
0.100588 -0.0920572 0.324965 113 89 7 
0.107741 -0.0921423 0.32459 141 114 22 
0.109327 -0.0922889 0.324965 174 156 36 
0.110792 -0.0923297 0.324965 165 143 38 
0.11256 -0.0923284 0.324778 135 108 30 
0.113639 -0.0923423 0.324715 110 81 28 
0.121453 -0.0926277 0.324903 173 149 52 
0.124771 -0.092715 0.32484 178 161 64 
0.130743 -0.0929107 0.32484 120 54 50 
0.0866932 -0.0915235 0.324215 186 167 52 
0.0896941 -0.091728 0.324715 182 160 53 
0.0938827 -0.0910086 0.32434 178 157 43 
0.095506 -0.0912179 0.324965 152 130 25 
0.101921 -0.091988 0.32459 99 81 18 
0.103333 -0.0919902 0.324465 141 126 48 
0.116335 -0.0915324 0.32409 171 155 62 
0.11868 -0.091704 0.324465 156 136 56 
0.0959517 -0.0902772 0.32409 132 111 10 
0.0974679 -0.0903812 0.32434 100 76 22 
0.132702 -0.0947026 0.32584 120 51 62 
0.0885635 -0.0934083 0.325715 184 164 66 
0.100533 -0.0930316 0.325903 182 159 59 
0.101566 -0.0930061 0.325715 134 113 26 
0.102982 -0.0930082 0.32559 104 86 0 
0.1044 -0.0930109 0.325465 174 156 34 
0.10663 -0.0931055 0.32559 187 162 54 
0.109684 -0.0932935 0.325965 170 150 31 
0.111888 -0.0933558 0.325965 165 138 42 
0.113317 -0.0933623 0.32584 158 136 40 
0.115485 -0.0933912 0.325715 133 112 39 
0.117052 -0.0935069 0.325965 154 137 53 
0.123687 -0.0936776 0.32584 182 161 70 
0.128746 -0.0930146 0.325465 177 121 66 
0.13047 -0.0939342 0.325965 112 47 49 
0.131396 -0.0938282 0.325465 106 47 50 
0.132371 -0.0937586 0.32509 115 52 56 
0.0883775 -0.0925153 0.32509 186 166 58 
0.0906372 -0.0926708 0.325465 186 164 59 
0.0936641 -0.0928803 0.325965 180 161 46 
0.0949475 -0.0920565 0.325465 173 151 46 
0.0964674 -0.0921619 0.325715 179 155 44 
0.0976288 -0.0922591 0.325965 177 158 52 
0.0986414 -0.0922151 0.325715 158 138 40 
0.0996343 -0.0921537 0.325403 106 78 9 
0.116716 -0.0925352 0.32509 146 123 48 
0.118283 -0.0926505 0.32534 175 163 64 
0.126405 -0.09287 0.325215 182 163 62 
0.0926752 -0.0918996 0.32509 182 160 51 
0.0984343 -0.0913228 0.32509 96 71 4 
0.133997 -0.09725 0.326965 148 125 133 
0.0895736 -0.0944293 0.326715 185 165 71 
0.0910883 -0.094535 0.326965 184 164 66 
0.0997851 -0.0940277 0.326965 183 163 42 
0.103318 -0.0940145 0.32659 164 146 38 
0.107752 -0.0941692 0.326715 180 156 45 
0.109305 -0.0942822 0.326965 157 138 23 
0.112991 -0.0943874 0.326965 162 141 40 
0.114382 -0.0943584 0.326715 141 122 39 
0.116602 -0.0944245 0.326715 149 136 53 
0.119571 -0.094515 0.326715 128 108 32 
0.12255 -0.0946082 0.326715 181 158 58 
0.127763 -0.0940502 0.326715 190 157 70 
0.129542 -0.0940404 0.326465 125 51 44 
0.130795 -0.0948792 0.326715 107 46 51 
0.0916548 -0.0936896 0.326465 184 165 64 
0.095664 -0.0934614 0.32659 182 163 56 
0.0966701 -0.0930568 0.32634 182 162 54 
0.0985042 -0.0931194 0.326403 181 161 42 
0.0995378 -0.0930932 0.326215 179 159 38 
0.101512 -0.0939847 0.326653 174 153 48 
0.118578 -0.0935875 0.32609 167 153 66 
0.13266 -0.0966123 0.327465 130 58 72 
0.09211 -0.0955627 0.327965 181 166 70 
0.0986472 -0.0950011 0.327965 186 164 55 
0.100436 -0.0950116 0.32784 184 163 51 
0.103693 -0.0950618 0.327715 186 166 58 
0.106631 -0.0951413 0.327715 180 159 47 
0.10966 -0.0952962 0.327965 162 142 34 
0.114449 -0.0954173 0.327902 138 112 34 
0.117725 -0.0954633 0.327715 146 135 60 
0.120614 -0.0954828 0.327465 156 133 54 
0.12365 -0.0956143 0.32759 183 158 68 
0.126796 -0.0958218 0.327965 136 61 26 
0.129636 -0.0950823 0.32759 131 47 49 
0.0926424 -0.0946776 0.32734 183 167 65 
0.0957295 -0.0949285 0.327965 183 163 65 
0.0983657 -0.0940269 0.32709 181 163 45 
0.1116 -0.0944169 0.327215 165 143 45 
0.125683 -0.094813 0.32709 183 155 66 
0.127329 -0.0949708 0.327465 157 112 33 
0.133321 -0.0985268 0.328965 148 125 133 
0.132484 -0.0977266 0.32884 126 57 70 
0.0989665 -0.0960161 0.328965 187 163 66 
0.100433 -0.0960539 0.328965 186 165 64 
0.102598 -0.0960751 0.32884 186 166 58 
0.107714 -0.0961791 0.328715 181 157 35 
0.109234 -0.0962573 0.32884 171 144 39 
0.116571 -0.0964023 0.32859 102 81 35 
0.121709 -0.0964918 0.32834 171 149 55 
0.123254 -0.0965767 0.328465 179 154 66 
0.125508 -0.0966502 0.328465 165 129 61 
0.127488 -0.0967864 0.328715 138 48 50 
0.128718 -0.0968981 0.328965 138 44 54 
0.131598 -0.0968912 0.32859 121 50 59 
0.0937062 -0.0957432 0.328465 183 163 65 
0.0952363 -0.0958516 0.328715 180 165 67 
0.097502 -0.095979 0.328965 183 166 67 
0.112703 -0.0954538 0.328215 165 141 44 
0.128448 -0.0959816 0.32834 136 47 44 
0.128403 -0.0986401 0.329965 128 48 58 
0.129541 -0.0986792 0.329965 132 48 50 
0.130631 -0.0986814 0.32984 136 53 48 
0.0985513 -0.097017 0.329965 184 164 66 
0.103706 -0.0971526 0.329965 186 163 61 
0.106663 -0.0972336 0.329965 187 163 52 
0.109629 -0.0973173 0.329965 177 155 57 
0.112603 -0.0974037 0.329965 174 151 51 
0.115455 -0.0973821 0.32959 153 133 53 
0.117563 -0.0973398 0.329215 109 82 27 
0.120602 -0.0974706 0.32934 175 150 60 
0.123654 -0.0976044 0.329465 165 130 57 
0.126574 -0.09763 0.329215 137 55 63 
0.129697 -0.0978067 0.329465 136 52 49 
0.13147 -0.0977795 0.329152 129 53 58 
0.0939022 -0.0966502 0.32909 180 165 83 
0.0955078 -0.096833 0.32959 178 165 75 
0.110799 -0.0963728 0.32909 158 135 33 
0.112325 -0.0964524 0.329215 169 142 48 
0.127298 -0.0996263 0.330965 137 86 99 
0.129481 -0.0996295 0.330715 124 51 56 
0.132429 -0.0996613 0.330465 152 124 125 
0.0988315 -0.0980044 0.33084 182 164 72 
0.100306 -0.0980428 0.33084 184 163 74 
0.10256 -0.0981387 0.330965 184 167 68 
0.105523 -0.0982194 0.330965 187 165 60 
0.110727 -0.0983671 0.330965 184 164 58 
0.113671 -0.0984181 0.33084 176 155 54 
0.118693 -0.098393 0.330215 174 150 55 
0.12024 -0.0984777 0.33034 182 155 52 
0.122545 -0.0985877 0.330465 189 154 71 
0.0973222 -0.0979297 0.330715 179 163 88 
0.130024 -0.101491 0.331965 131 73 73 
0.126947 -0.100643 0.331965 114 109 140 
0.128326 -0.100581 0.33159 130 58 72 
0.130515 -0.100585 0.33134 127 68 59 
0.101293 -0.0990173 0.33159 182 164 76 
0.103554 -0.0991146 0.331715 185 166 65 
0.112581 -0.0994448 0.331965 185 162 60 
0.117572 -0.0993804 0.331215 168 141 47 
0.120674 -0.099551 0.331465 182 151 52 
0.123744 -0.0996871 0.33159 132 78 40 
0.128911 -0.102488 0.332964 132 73 78 
0.130247 -0.102388 0.332464 134 124 112 
0.128643 -0.101552 0.332339 124 67 90 
0.131603 -0.101584 0.33209 150 114 102 
0.104632 -0.10017 0.332714 182 165 70 
0.107696 -0.10033 0.332964 185 164 61 
0.116576 -0.100486 0.332589 177 158 57 
0.11955 -0.100543 0.332464 182 154 56 
0.122624 -0.100679 0.332589 143 88 53 
0.125521 -0.100667 0.332215 140 131 156 
0.101504 -0.0999385 0.332215 182 163 80 
0.106647 -0.0993091 0.33209 185 165 57 
0.109672 -0.0994317 0.332215 183 164 63 
0.128462 -0.103439 0.333714 137 105 99 
0.127526 -0.10255 0.333339 116 79 105 
0.104849 -0.101097 0.333339 181 163 86 
0.106462 -0.101253 0.333714 185 163 79 
0.109542 -0.101415 0.333964 186 166 72 
0.116325 -0.10162 0.333964 183 160 58 
0.118507 -0.101616 0.333714 185 156 63 
0.121542 -0.101714 0.333714 148 93 51 
0.109233 -0.10041 0.333089 187 166 65 
0.111524 -0.100514 0.333214 187 164 64 
0.105854 -0.102086 0.334089 183 162 89 
0.107474 -0.102243 0.334464 185 162 85 
0.110646 -0.102485 0.334964 187 165 67 
0.118976 -0.102743 0.334964 190 153 82 
0.120453 -0.102754 0.334839 135 76 38 
0.12274 -0.102829 0.334839 161 115 127 
0.112719 -0.101656 0.334464 190 163 67 
0.112281 -0.102645 0.335339 189 165 68 
0.114594 -0.102752 0.335464 185 165 71 
0.117543 -0.102771 0.335214 185 161 64 
0.11207 -0.104579 0.336839 183 163 83 
0.111797 -0.103598 0.336089 186 164 80 
0.113439 -0.10376 0.336464 185 162 75 
0.116568 -0.103932 0.336714 185 163 54 
0.121692 -0.103912 0.336089 160 93 107 
0.123224 -0.103963 0.336089 157 128 148 
0.117703 -0.105017 0.337714 183 159 62 
0.120635 -0.105 0.337339 141 55 60 
0.113716 -0.104742 0.337214 184 160 76 
0.115367 -0.104906 0.337589 186 163 74 
0.117309 -0.106059 0.338714 150 90 57 
0.119613 -0.106134 0.338714 141 56 58 
0.122649 -0.106197 0.338589 163 99 112 
0.118537 -0.107233 0.339964 144 71 72 
0.121536 -0.107257 0.339714 145 56 66 
0.123128 -0.107349 0.339839 155 71 87 
0.121234 -0.108387 0.340964 141 66 76 
0.12283 -0.10848 0.341089 143 64 78 
0.124522 -0.108652 0.341464 131 63 71 
0.122483 -0.109576 0.342213 135 67 84 
0.124132 -0.10971 0.342463 139 77 87 
0.0150067 -0.0332791 0.319738 126 36 50 
0.0157339 -0.0341024 0.320822 122 35 48 
0.0162947 -0.0347913 0.321495 121 37 50 
0.0141375 -0.0338317 0.319655 127 35 51 
0.0145504 -0.0344189 0.320461 130 35 49 
0.0154322 -0.0354806 0.32143 126 33 43 
0.0160985 -0.0362433 0.322008 127 28 39 
0.0137528 -0.0351508 0.32034 141 65 74 
0.0146545 -0.0362277 0.32129 118 22 33 
0.0125631 -0.0353107 0.319394 101 35 40 
0.0130386 -0.0359409 0.320142 97 54 57 
0.0140232 -0.0370776 0.321015 85 19 21 
0.0131499 -0.0372125 0.320286 77 22 21 
0.017984 -0.03402 0.321239 117 39 51 
0.0184125 -0.0347004 0.321868 129 36 57 
0.0192685 -0.0359845 0.322834 132 37 54 
0.0156358 -0.032306 0.318586 130 36 46 
0.0161204 -0.0330991 0.319924 121 35 49 
0.0181979 -0.0356661 0.322482 132 36 56 
0.0193225 -0.0368947 0.323253 129 35 47 
0.0171181 -0.0355789 0.322102 129 35 55 
0.0181541 -0.0367475 0.322945 128 32 46 
0.0168719 -0.037081 0.322493 120 23 31 
0.0180555 -0.0382229 0.323179 109 21 25 
0.0154072 -0.0374501 0.321872 111 17 25 
0.0166685 -0.0383838 0.322425 101 17 21 
0.0155594 -0.0386805 0.321691 89 18 18 
0.011989 -0.0365253 0.318846 82 25 26 
0.0136399 -0.0381065 0.320511 75 20 17 
0.0126761 -0.0381057 0.319563 70 19 16 
0.0120241 -0.0380026 0.318539 70 16 17 
0.0205027 -0.0355365 0.322581 132 37 54 
0.0211564 -0.0362895 0.323187 131 37 47 
0.0219427 -0.037211 0.323974 135 37 50 
0.0208046 -0.0372487 0.323754 131 37 48 
0.0217035 -0.0386482 0.324532 129 31 44 
0.0206135 -0.0385577 0.324143 121 24 35 
0.019662 -0.0384783 0.323804 115 22 31 
0.0187682 -0.0390788 0.323463 102 18 21 
0.0177626 -0.0395849 0.322659 92 19 17 
0.0165046 -0.0397059 0.321756 86 19 19 
0.0143801 -0.0391814 0.320509 80 21 14 
0.0126897 -0.0392345 0.318924 66 19 14 
0.0138545 -0.039974 0.319531 73 18 13 
0.0119181 -0.0392434 0.317759 68 15 11 
0.0233615 -0.0369579 0.32387 134 36 52 
0.0243286 -0.0380804 0.324807 132 38 48 
0.0231616 -0.0381036 0.3246 132 36 48 
0.0241439 -0.0393198 0.325359 128 35 45 
0.0227685 -0.0393622 0.324998 125 31 43 
0.0215652 -0.0396786 0.324623 109 21 25 
0.0227059 -0.0407157 0.325085 104 21 23 
0.0216848 -0.0408912 0.324492 102 18 20 
0.019699 -0.0403566 0.323618 95 19 18 
0.0185779 -0.0405772 0.322586 91 19 15 
0.0173712 -0.0407383 0.321629 83 18 18 
0.0155684 -0.0403256 0.320615 77 19 17 
0.0115316 -0.0390067 0.316692 69 20 16 
0.0129941 -0.0406552 0.31831 68 20 14 
0.0255363 -0.0375996 0.324601 132 35 46 
0.0261551 -0.0383312 0.325254 131 39 53 
0.0267689 -0.0396231 0.326133 129 38 49 
0.0257833 -0.0396909 0.325927 132 38 51 
0.0267565 -0.0407424 0.326582 130 31 47 
0.0256913 -0.0408368 0.326277 121 29 38 
0.0243035 -0.0409558 0.325751 110 22 29 
0.0250073 -0.0416718 0.32604 107 23 27 
0.0237271 -0.0417295 0.325394 98 21 21 
0.0224264 -0.0418297 0.324505 98 21 20 
0.0213423 -0.0418874 0.323667 92 20 13 
0.0201506 -0.0417342 0.322894 90 21 17 
0.0185274 -0.0415896 0.32173 83 20 16 
0.0172102 -0.0415404 0.320836 80 20 20 
0.0151229 -0.0411819 0.319561 77 20 13 
0.0160409 -0.0417326 0.319838 73 18 15 
0.0134327 -0.0415159 0.318008 69 19 14 
0.0146708 -0.0420413 0.318504 70 20 15 
0.0113958 -0.0398329 0.315846 68 20 14 
0.0123122 -0.0410047 0.317105 68 16 11 
0.0280197 -0.0390843 0.326068 130 39 49 
0.0292667 -0.0404762 0.327094 136 38 50 
0.0282244 -0.0410754 0.327146 134 35 45 
0.0282662 -0.0423176 0.327391 113 24 30 
0.0265755 -0.0417524 0.326715 111 24 26 
0.0258097 -0.0425917 0.326282 99 22 23 
0.0245323 -0.0427118 0.325364 96 22 21 
0.0232327 -0.0426806 0.324436 96 20 18 
0.0195116 -0.042711 0.321511 82 20 17 
0.0183779 -0.0429337 0.32047 79 19 19 
0.0171024 -0.0427208 0.319773 75 18 18 
0.0159131 -0.0425681 0.319003 72 19 15 
0.0132973 -0.0423509 0.317167 68 18 13 
0.0142122 -0.0429038 0.317443 69 19 14 
0.011506 -0.0411841 0.314528 67 17 14 
0.0119112 -0.0417677 0.315368 63 15 11 
0.0309159 -0.0405175 0.327432 133 39 50 
0.0318909 -0.0417311 0.32824 134 37 50 
0.0299864 -0.0411159 0.327551 133 36 49 
0.0304835 -0.0419321 0.327992 133 36 48 
0.0316854 -0.0430568 0.328655 127 29 41 
0.0297631 -0.0426691 0.327943 121 27 35 
0.0304567 -0.0433765 0.328262 115 23 31 
0.0290574 -0.0433628 0.327689 104 21 23 
0.0279336 -0.0434781 0.327157 100 21 24 
0.0266212 -0.0435778 0.326259 99 23 22 
0.0254843 -0.0437993 0.325216 93 20 18 
0.0244327 -0.044082 0.324098 92 23 20 
0.0225969 -0.0436606 0.323057 91 19 15 
0.0234711 -0.043841 0.323614 90 19 17 
0.0204837 -0.0432964 0.321761 84 21 17 
0.021259 -0.0439999 0.321678 85 21 17 
0.0193894 -0.0435497 0.320681 76 19 17 
0.0182093 -0.043743 0.319676 77 19 20 
0.016987 -0.0439062 0.318708 70 18 15 
0.0153728 -0.0433717 0.31802 72 19 13 
0.016132 -0.0440746 0.317925 74 21 15 
0.0123949 -0.0429455 0.315065 67 16 12 
0.0130421 -0.0432348 0.315875 68 19 13 
0.0139099 -0.0438907 0.316225 66 20 12 
0.0340769 -0.0417132 0.328533 137 39 52 
0.0324218 -0.0407829 0.327697 133 36 49 
0.033243 -0.0423018 0.32873 136 38 50 
0.034389 -0.0435502 0.329582 133 36 46 
0.0332632 -0.0434552 0.329164 129 32 41 
0.0332835 -0.0445569 0.329406 114 24 26 
0.031259 -0.0442944 0.328531 109 22 26 
0.0320284 -0.0449194 0.328766 109 22 25 
0.0298386 -0.0445974 0.327769 100 25 19 
0.0284103 -0.0448743 0.32646 98 21 22 
0.0265605 -0.0444496 0.325407 96 21 22 
0.027354 -0.0451575 0.32534 96 21 20 
0.0255055 -0.0447329 0.324288 92 21 19 
0.024362 -0.0449557 0.323241 89 21 19 
0.0228078 -0.044477 0.322457 91 19 17 
0.0202529 -0.044457 0.320544 76 19 18 
0.0192356 -0.0447092 0.319658 73 19 19 
0.0180365 -0.0445547 0.318879 72 19 17 
0.0149906 -0.0442995 0.316881 67 19 13 
0.0113688 -0.0421544 0.312503 69 19 16 
0.0118888 -0.0433072 0.313632 61 14 10 
0.012439 -0.0438635 0.314313 67 16 12 
0.0350636 -0.0422014 0.328994 135 37 52 
0.0356339 -0.0429864 0.329556 134 38 52 
0.0366918 -0.0442584 0.330328 133 38 50 
0.0351655 -0.0442286 0.330016 133 35 43 
0.0358251 -0.044912 0.330382 129 33 35 
0.0364862 -0.0455971 0.330749 122 26 26 
0.0350612 -0.0457152 0.330196 108 25 18 
0.0340779 -0.0454698 0.329694 110 24 22 
0.0328798 -0.0458738 0.329005 102 23 21 
0.0294078 -0.045467 0.326732 94 22 18 
0.0303638 -0.0460307 0.327043 94 24 20 
0.0296341 -0.0462896 0.326147 94 22 20 
0.0283487 -0.0457505 0.32561 96 23 19 
0.0266036 -0.0457354 0.324257 92 21 18 
0.0253485 -0.0455475 0.323504 88 21 20 
0.0236263 -0.0458831 0.321929 84 17 16 
0.0223577 -0.045347 0.321406 84 20 15 
0.0212106 -0.0455714 0.320357 77 19 17 
0.0203493 -0.04574 0.31957 73 19 19 
0.0189564 -0.0456491 0.318711 74 20 19 
0.0174899 -0.0453645 0.317895 68 19 18 
0.0164242 -0.0456513 0.31677 69 21 15 
0.0131864 -0.0451167 0.314323 68 18 13 
0.0111766 -0.0433081 0.311449 67 20 19 
0.0118261 -0.0444935 0.312744 61 13 9 
0.0393652 -0.0447935 0.331171 131 40 51 
0.0375932 -0.0437892 0.33038 134 39 56 
0.0382343 -0.0444582 0.330767 136 41 58 
0.0394283 -0.0457401 0.331615 128 42 51 
0.0380995 -0.0456005 0.331167 130 33 43 
0.0371947 -0.0463148 0.331085 116 23 24 
0.0358349 -0.0464783 0.330476 104 26 17 
0.0366156 -0.0471099 0.330723 101 26 21 
0.0350158 -0.0467555 0.329942 99 27 18 
0.0336818 -0.046854 0.329027 97 21 18 
0.0325282 -0.0470761 0.327972 97 24 22 
0.0314815 -0.0470398 0.32703 92 24 17 
0.0298579 -0.0471148 0.32556 92 22 22 
0.0286579 -0.0466354 0.324949 96 24 17 
0.0275041 -0.046859 0.323895 92 20 18 
0.0251734 -0.0468927 0.322282 86 20 18 
0.0223802 -0.0464403 0.320477 78 21 17 
0.0232553 -0.0468194 0.320802 80 20 16 
0.0211432 -0.0466042 0.319499 73 22 20 
0.0200189 -0.0467865 0.318696 72 23 19 
0.0186874 -0.0465384 0.318024 71 22 21 
0.0171844 -0.0463608 0.31668 60 22 15 
0.0178436 -0.0468619 0.317244 59 20 19 
0.018979 -0.0475845 0.317933 75 33 32 
0.0161122 -0.0466489 0.31555 83 55 38 
0.0142035 -0.0461658 0.314592 64 21 14 
0.0123562 -0.0455875 0.312961 66 16 11 
0.0130641 -0.0461275 0.31347 67 19 13 
0.0108975 -0.0444067 0.310472 70 24 23 
0.0112325 -0.0449387 0.311402 60 15 14 
0.0115193 -0.0460592 0.311595 62 14 10 
0.0408314 -0.0459253 0.332015 115 50 52 
0.0415024 -0.0466153 0.332392 109 54 50 
0.0400335 -0.0466346 0.332007 125 37 44 
0.0410767 -0.047821 0.332531 92 32 30 
0.0399255 -0.0478834 0.332231 101 22 27 
0.0387546 -0.0478486 0.331658 105 23 28 
0.0376168 -0.0481667 0.330872 98 26 25 
0.0356201 -0.0479915 0.329673 97 26 17 
0.0370205 -0.0486 0.330161 98 26 19 
0.0333382 -0.0477926 0.327922 97 24 22 
0.0343954 -0.0484245 0.328173 95 23 17 
0.0314193 -0.0479234 0.326183 92 23 20 
0.0300791 -0.0479427 0.324974 93 20 16 
0.0286396 -0.047693 0.324084 93 23 16 
0.0257214 -0.0478383 0.321936 82 22 18 
0.0244437 -0.0472973 0.321404 81 19 16 
0.0220445 -0.0476871 0.319367 72 21 21 
0.0230122 -0.0479319 0.319858 69 21 15 
0.0210081 -0.0477334 0.318725 69 27 19 
0.0192183 -0.0485243 0.317583 85 68 54 
0.017201 -0.047335 0.315686 60 30 18 
0.0182453 -0.0482004 0.316798 55 31 25 
0.0159124 -0.0476041 0.31478 68 40 23 
0.0137183 -0.0470427 0.313519 68 20 14 
0.01451 -0.0476473 0.313954 62 27 17 
0.0106657 -0.0452717 0.309993 66 22 21 
0.0129329 -0.0476276 0.312414 68 18 15 
0.0107545 -0.046593 0.310146 57 15 14 
0.0443292 -0.046988 0.333208 105 67 62 
0.0431597 -0.0466331 0.332807 98 61 52 
0.0439612 -0.0479068 0.333493 90 46 44 
0.042311 -0.0473146 0.332832 99 57 51 
0.0420508 -0.0487986 0.332982 81 35 34 
0.0410354 -0.0489533 0.332577 81 33 27 
0.0395921 -0.0489885 0.331718 92 25 26 
0.038672 -0.0491239 0.330954 92 24 24 
0.0359481 -0.0488847 0.32903 97 26 15 
0.036767 -0.0496069 0.328988 97 26 15 
0.0343802 -0.0493439 0.327295 93 21 14 
0.0322476 -0.0489958 0.32591 90 22 18 
0.031506 -0.0492572 0.325006 87 23 18 
0.0296282 -0.0488237 0.323928 88 22 16 
0.0283766 -0.0489869 0.322939 89 19 19 
0.0249264 -0.048745 0.320655 76 21 17 
0.0240958 -0.0489459 0.319823 69 23 17 
0.0220416 -0.0487155 0.318721 75 38 30 
0.0203483 -0.0488933 0.31792 74 60 43 
0.0213052 -0.0493383 0.318171 74 55 39 
0.0182275 -0.0486678 0.315438 51 27 15 
0.0197038 -0.049654 0.317007 83 70 48 
0.0156199 -0.0486346 0.314119 64 43 25 
0.0145857 -0.0486825 0.313479 63 34 22 
0.0134094 -0.0486233 0.312376 65 18 16 
0.0111965 -0.047843 0.310184 63 14 10 
0.0126488 -0.048744 0.311442 70 17 13 
0.0451285 -0.0476795 0.333665 100 53 54 
0.0462261 -0.0489841 0.334469 132 102 59 
0.0448023 -0.0487939 0.334052 133 96 64 
0.0438281 -0.0489804 0.333609 91 48 40 
0.0450449 -0.0502022 0.334193 100 70 29 
0.0432148 -0.0499045 0.333302 75 37 26 
0.0416565 -0.0502014 0.332326 63 34 24 
0.039253 -0.0499342 0.330619 88 26 25 
0.0403921 -0.0503612 0.331326 71 33 26 
0.0373398 -0.0504184 0.328648 96 25 14 
0.0357785 -0.049955 0.327783 96 24 17 
0.0346079 -0.0501792 0.326717 92 21 14 
0.0333248 -0.0499859 0.325941 92 23 17 
0.0311389 -0.0502048 0.323888 87 22 20 
0.0293761 -0.0495892 0.323218 88 24 18 
0.0301293 -0.0502807 0.323197 87 23 18 
0.0281726 -0.0499297 0.322215 80 21 18 
0.0291203 -0.0503568 0.322506 84 23 17 
0.0268665 -0.0499171 0.321236 73 22 16 
0.0259894 -0.0500872 0.320438 73 25 17 
0.0251405 -0.0499334 0.319829 71 26 19 
0.0227028 -0.049696 0.31853 74 48 33 
0.0210556 -0.050261 0.317459 52 37 25 
0.0178745 -0.0497265 0.314553 49 35 20 
0.0189223 -0.0500341 0.314967 51 33 24 
0.016596 -0.0499427 0.313906 54 37 21 
0.0145193 -0.0500386 0.312619 62 38 22 
0.0133108 -0.0499586 0.311538 64 22 15 
0.0106509 -0.0480677 0.308708 58 13 13 
0.0118188 -0.049173 0.309726 66 16 12 
0.0478564 -0.0489733 0.334933 105 69 35 
0.0491335 -0.0503139 0.335788 187 164 65 
0.0483732 -0.0511505 0.335581 157 133 47 
0.0461511 -0.0505176 0.334653 102 67 38 
0.0469287 -0.0512831 0.334979 104 68 36 
0.044758 -0.0513488 0.333651 87 55 27 
0.0433924 -0.0514455 0.332713 71 45 24 
0.0422598 -0.0516996 0.331606 64 34 23 
0.0405423 -0.0510554 0.330537 82 29 23 
0.0413161 -0.0511512 0.331229 71 33 26 
0.0390891 -0.0510085 0.329379 92 26 20 
0.0379124 -0.0512324 0.328308 96 25 14 
0.0344502 -0.0510108 0.325942 93 22 18 
0.032352 -0.0506916 0.324512 87 22 20 
0.0279796 -0.0512972 0.320991 69 26 21 
0.024287 -0.0508164 0.318577 60 31 21 
0.0224961 -0.0509324 0.317841 55 41 22 
0.0202162 -0.05074 0.316095 86 68 46 
0.0213231 -0.0511616 0.316776 53 35 24 
0.0173532 -0.0506642 0.313819 48 33 21 
0.0160178 -0.0507698 0.312907 49 35 16 
0.0167726 -0.0514935 0.31282 42 33 14 
0.0141755 -0.0510539 0.311386 63 29 21 
0.0110625 -0.0489542 0.3084 59 12 13 
0.0121298 -0.0501311 0.308937 65 16 12 
0.0127527 -0.0501764 0.310077 70 17 11 
0.0103031 -0.0487345 0.307072 64 22 19 
0.051864 -0.0509314 0.336575 186 165 64 
0.0503711 -0.0507079 0.336175 183 164 59 
0.0515397 -0.0518951 0.336831 174 153 47 
0.0504534 -0.0520195 0.336443 162 141 40 
0.0491561 -0.0519186 0.335912 151 129 35 
0.0476957 -0.052378 0.335131 129 116 26 
0.0457296 -0.052585 0.333648 88 57 16 
0.0443581 -0.0526816 0.332705 84 61 31 
0.0430974 -0.052514 0.331875 75 49 28 
0.0415592 -0.0519927 0.330665 70 36 24 
0.0422565 -0.0527131 0.331035 78 51 29 
0.0399153 -0.0517372 0.329346 87 28 21 
0.0387346 -0.0519615 0.328273 90 27 17 
0.0368248 -0.0515196 0.327167 94 26 18 
0.0376431 -0.0522492 0.327129 93 25 17 
0.0353748 -0.0519588 0.325841 92 22 18 
0.0363706 -0.0524119 0.326125 93 24 21 
0.033787 -0.0520209 0.324558 88 22 18 
0.0325431 -0.051858 0.323743 87 22 17 
0.0312148 -0.0516323 0.323001 83 21 18 
0.0302442 -0.0517399 0.32227 80 23 19 
0.0290653 -0.0519674 0.3212 72 28 21 
0.0281804 -0.0521384 0.320397 73 32 26 
0.0263843 -0.0517645 0.319241 59 35 23 
0.0250361 -0.0518678 0.318319 59 35 23 
0.0235403 -0.0525631 0.317091 58 44 29 
0.0220939 -0.0518873 0.316702 51 36 26 
0.0197796 -0.0515328 0.314347 62 44 33 
0.0205938 -0.0520132 0.314763 72 45 29 
0.0186099 -0.0514866 0.313812 50 34 22 
0.0182815 -0.0522291 0.313118 48 35 22 
0.0127719 -0.0508395 0.309261 67 17 10 
0.011426 -0.0500233 0.307872 62 13 13 
0.0121452 -0.0507937 0.308117 66 15 15 
0.0103135 -0.0493928 0.306246 66 28 21 
0.0539286 -0.0512708 0.337073 188 166 70 
0.0527027 -0.0514801 0.336905 186 165 67 
0.0537832 -0.0528625 0.337611 179 161 55 
0.0526907 -0.0529872 0.337218 164 142 40 
0.0513056 -0.0530854 0.336711 152 131 36 
0.0511703 -0.0541761 0.33639 141 121 23 
0.049539 -0.0538265 0.335533 143 122 21 
0.0477375 -0.0537552 0.334361 132 119 29 
0.0460144 -0.0538755 0.333176 111 86 39 
0.0442943 -0.0539964 0.331994 87 61 30 
0.0415491 -0.0529243 0.329797 71 34 20 
0.0396989 -0.0534756 0.327738 84 25 18 
0.0351393 -0.0532944 0.324682 90 24 20 
0.0333225 -0.0529152 0.323509 87 21 17 
0.0342304 -0.0531048 0.324095 88 23 19 
0.0311016 -0.0528597 0.321958 77 33 22 
0.0321372 -0.0531427 0.322434 83 23 19 
0.0284641 -0.0530453 0.319729 67 41 28 
0.0267057 -0.0529853 0.318593 61 39 26 
0.0249928 -0.053241 0.317485 76 55 38 
0.0226069 -0.0529824 0.315795 52 34 25 
0.023807 -0.0534714 0.316411 57 39 28 
0.021147 -0.0528616 0.314344 64 30 18 
0.0196492 -0.0525689 0.313501 57 38 29 
0.0174524 -0.0528742 0.312346 39 32 15 
0.0130022 -0.0517414 0.308551 67 17 14 
0.0109028 -0.0507821 0.306128 55 12 14 
0.0116072 -0.0512481 0.306958 63 14 12 
0.0566568 -0.053223 0.338538 185 165 69 
0.0552663 -0.0530743 0.338041 182 160 61 
0.0553282 -0.0543835 0.338334 161 133 44 
0.0540867 -0.0543277 0.337742 152 130 41 
0.0526922 -0.0545069 0.337075 146 126 35 
0.0519367 -0.0548529 0.336454 139 122 25 
0.0506419 -0.0550116 0.335432 143 122 21 
0.0484947 -0.0544302 0.334418 134 121 31 
0.0493481 -0.0551708 0.33441 137 120 23 
0.0472841 -0.0549843 0.333157 128 111 34 
0.0451351 -0.0547348 0.331976 81 54 19 
0.0466696 -0.0554271 0.332437 127 110 53 
0.044034 -0.0550231 0.330826 85 63 26 
0.042687 -0.0542934 0.329648 73 43 25 
0.0412818 -0.0539471 0.328622 74 33 19 
0.0405241 -0.0542111 0.327708 74 31 22 
0.0385766 -0.0540944 0.326407 87 27 17 
0.0374826 -0.0537764 0.325955 89 26 19 
0.0362126 -0.0540882 0.324973 90 23 21 
0.0371822 -0.0545242 0.325284 90 20 20 
0.0349691 -0.0541358 0.323903 88 23 18 
0.0341637 -0.05437 0.323023 86 20 16 
0.0329389 -0.0538757 0.322386 83 24 17 
0.0304433 -0.0535482 0.320748 73 37 25 
0.0312393 -0.0542819 0.320696 69 41 24 
0.0293401 -0.0538404 0.319599 67 43 29 
0.0272149 -0.0539323 0.318276 55 36 21 
0.0263764 -0.054219 0.317732 77 59 33 
0.0254002 -0.0543287 0.316998 72 53 30 
0.0239877 -0.0543194 0.315805 51 32 19 
0.0226939 -0.0540448 0.31473 59 29 21 
0.0207244 -0.0538236 0.313193 60 34 23 
0.0185324 -0.0538567 0.311958 44 31 18 
0.0171475 -0.0530799 0.310895 49 37 19 
0.0123611 -0.0524122 0.306928 67 16 16 
0.013518 -0.0533072 0.307636 65 16 13 
0.0109036 -0.0517288 0.305359 54 15 12 
0.0590172 -0.0547655 0.339695 180 163 48 
0.0576161 -0.0537649 0.338965 185 165 62 
0.0574985 -0.0552997 0.339202 158 140 38 
0.0561939 -0.0554609 0.338619 151 127 31 
0.0547997 -0.0553902 0.337964 143 121 39 
0.0537515 -0.0554608 0.337242 141 123 34 
0.0534739 -0.0562124 0.336589 139 122 25 
0.051406 -0.0556904 0.335496 141 120 19 
0.0482108 -0.0561216 0.332904 133 115 36 
0.0470083 -0.0563463 0.331815 129 114 47 
0.0451499 -0.0559557 0.330606 77 50 17 
0.0431974 -0.0553354 0.328879 75 43 21 
0.043989 -0.0555179 0.329877 83 58 20 
0.0418584 -0.0547724 0.328291 71 34 20 
0.0393746 -0.0551618 0.326193 84 25 16 
0.0377508 -0.0554343 0.325241 83 25 20 
0.0358491 -0.0553496 0.323906 85 24 18 
0.0350669 -0.0552536 0.323208 87 21 17 
0.0339046 -0.0550135 0.322273 81 23 16 
0.030218 -0.054638 0.319471 61 40 25 
0.0286928 -0.054977 0.318458 59 39 24 
0.02751 -0.0552901 0.317678 64 49 28 
0.0247635 -0.0550542 0.315739 53 34 21 
0.0217479 -0.0544665 0.313426 58 28 17 
0.0226926 -0.0550477 0.313738 61 27 19 
0.0192918 -0.0545891 0.311879 55 42 29 
