ply
format ascii 1.0
comment Created by CloudCompare v2.11 alpha (Anoia)
comment Created 20/2/13 下午10:59
obj_info Generated by CloudCompare!
element vertex 1196
property float x
property float y
property float z
property uchar red
property uchar green
property uchar blue
end_header
-0.0192476 0.0352781 0.181715 9 27 91 
-0.04927 0.0141384 0.182528 31 24 87 
-0.0484339 0.0155906 0.182309 27 24 88 
-0.0484405 0.0174417 0.182303 26 25 89 
-0.0483591 0.018509 0.182278 27 24 88 
-0.0475856 0.0196512 0.18207 15 24 89 
-0.0480594 0.0203108 0.182715 30 23 86 
-0.0474259 0.021351 0.182559 16 26 90 
-0.046445 0.022474 0.182278 17 27 84 
-0.0471801 0.0232215 0.18284 16 24 91 
-0.0462749 0.0244513 0.182778 19 28 81 
-0.0454135 0.0253603 0.182546 18 26 83 
-0.0445334 0.0265127 0.182403 25 27 81 
-0.0437252 0.0277451 0.182528 24 29 76 
-0.0430004 0.029211 0.182903 21 28 73 
-0.0413279 0.0301419 0.18284 12 21 84 
-0.0104378 0.0306731 0.182465 9 27 91 
-0.0393266 0.0312192 0.182778 12 24 82 
-0.0112914 0.0313904 0.182278 9 27 91 
-0.00814833 0.0316159 0.182903 9 27 91 
-0.038199 0.0319858 0.182778 6 33 84 
-0.0366976 0.0326957 0.182444 9 28 89 
-0.0123406 0.0325994 0.182372 9 27 91 
-0.0108581 0.0323028 0.182903 9 27 91 
-0.0353371 0.033389 0.182382 9 27 91 
-0.0139804 0.0337904 0.182153 9 27 91 
-0.0342447 0.0342046 0.182903 9 27 91 
-0.0294419 0.034579 0.182528 9 27 91 
-0.027548 0.0346777 0.182309 9 27 91 
-0.0152814 0.0345774 0.182278 9 27 91 
-0.0264481 0.0352599 0.182465 9 27 91 
-0.0173564 0.0355365 0.182328 9 27 91 
-0.0156119 0.0354154 0.182778 9 27 91 
-0.0251951 0.0361858 0.182903 9 27 91 
-0.0235848 0.0364788 0.182528 9 27 91 
-0.0224787 0.036429 0.182353 9 27 91 
-0.0206017 0.0363961 0.182278 9 27 91 
-0.0194727 0.0365027 0.182486 9 27 91 
-0.0184167 0.0362982 0.182603 9 27 91 
-0.0214989 0.0370581 0.182653 9 27 91 
-0.0484844 0.0127739 0.183153 32 25 88 
-0.0492421 0.0129722 0.183903 28 31 88 
-0.0485842 0.0183466 0.183778 31 24 87 
-0.0481932 0.0215711 0.183486 31 24 87 
-0.0475014 0.0244467 0.183528 21 24 90 
-0.0463897 0.0254823 0.183309 16 27 84 
-0.0454449 0.0264323 0.183309 18 27 82 
-0.0452953 0.0273999 0.183728 18 28 83 
-0.0443572 0.0283599 0.183703 21 26 84 
-0.00822351 0.0288932 0.183403 9 27 91 
-0.0421975 0.0301287 0.183403 17 27 73 
-0.0409043 0.0308901 0.183403 11 22 92 
-0.00867151 0.0302548 0.183247 9 27 91 
-0.00931515 0.0313361 0.183184 9 27 91 
-0.0395494 0.0321399 0.18384 16 23 87 
-0.00941578 0.0324335 0.183653 9 27 91 
-0.0383161 0.0330461 0.183903 13 28 85 
-0.0365521 0.0335415 0.18334 8 27 86 
-0.0124904 0.0338739 0.183028 9 27 91 
-0.0115584 0.0334817 0.183246 9 27 91 
-0.010414 0.0333839 0.183653 9 27 91 
-0.0354237 0.0344368 0.183549 8 26 90 
-0.0333209 0.0347226 0.183371 9 27 91 
-0.0313691 0.0349239 0.183215 9 27 91 
-0.0132367 0.0346066 0.183215 9 27 91 
-0.0344 0.0353254 0.183903 9 27 91 
-0.032439 0.035284 0.183736 9 27 91 
-0.0304533 0.0354511 0.183444 9 27 91 
-0.0293407 0.0355346 0.183278 9 27 91 
-0.0273627 0.0357194 0.183153 9 27 91 
-0.0142792 0.0353797 0.18334 9 27 91 
-0.0126564 0.0350749 0.183903 9 27 91 
-0.0283573 0.0363862 0.183653 9 27 91 
-0.0262901 0.0363364 0.18334 9 27 91 
-0.0163483 0.0365676 0.183453 9 27 91 
-0.0146109 0.0362234 0.18384 9 27 91 
-0.0266422 0.03718 0.183809 9 27 91 
-0.0254357 0.037319 0.183653 9 27 90 
-0.0244521 0.0375044 0.183434 10 27 90 
-0.0232949 0.0376706 0.183309 10 27 90 
-0.0222739 0.0376241 0.183278 9 27 90 
-0.0206682 0.0377368 0.183403 9 27 91 
-0.0196257 0.0376768 0.183403 9 27 91 
-0.018528 0.0375766 0.183507 10 27 90 
-0.0174539 0.0372564 0.183528 9 27 91 
-0.0214925 0.0381045 0.183903 14 25 91 
-0.043779 0.00330542 0.184903 23 26 85 
-0.0488309 0.0156736 0.18409 24 27 84 
-0.0486343 0.0170749 0.184903 24 27 84 
-0.048279 0.0193751 0.18484 31 24 87 
-0.0482225 0.0225115 0.184028 32 25 88 
-0.0481792 0.0245853 0.184465 31 24 87 
-0.0476073 0.0256874 0.184361 30 23 86 
-0.0467371 0.0267317 0.184153 16 25 90 
-0.0462672 0.0283695 0.184778 15 25 89 
-0.0453037 0.0290713 0.184778 19 28 81 
-0.0435164 0.029681 0.184278 27 27 78 
-0.0443038 0.0299708 0.184903 16 26 83 
-0.042945 0.0309998 0.184653 29 29 80 
-0.0414515 0.0314199 0.184236 16 26 72 
-0.0404231 0.0324944 0.18451 11 22 90 
-0.00826955 0.0325099 0.184153 9 27 91 
-0.0392836 0.0335314 0.184715 15 22 86 
-0.0375656 0.0337246 0.184194 7 31 83 
-0.00936954 0.0335655 0.184236 9 27 91 
-0.0074037 0.0334844 0.184569 9 27 91 
-0.0382602 0.0341789 0.18484 13 25 83 
-0.0364562 0.0345238 0.18434 8 28 84 
-0.0113904 0.0348597 0.184278 9 27 91 
-0.00872373 0.0342785 0.184715 9 27 91 
-0.0353883 0.03537 0.18459 8 27 89 
-0.0342543 0.0361542 0.184778 9 27 91 
-0.0323997 0.0362214 0.184559 9 27 91 
-0.0313588 0.0363892 0.184632 9 27 91 
-0.0295104 0.0366912 0.184215 9 27 91 
-0.0135533 0.0364611 0.184403 9 27 91 
-0.0116902 0.036169 0.184903 9 27 91 
-0.0284247 0.0375378 0.184465 11 26 91 
-0.0166231 0.0377143 0.184215 12 28 90 
-0.0153991 0.0374675 0.184428 11 27 90 
-0.0143986 0.0374181 0.184684 11 27 90 
-0.0273502 0.0381599 0.184653 15 27 88 
-0.0262609 0.0382826 0.184611 14 27 87 
-0.0244108 0.0383612 0.18434 14 26 88 
-0.0232971 0.0387214 0.184559 12 25 83 
-0.0204313 0.0385625 0.184559 13 26 85 
-0.0194001 0.0385153 0.184528 14 27 86 
-0.0174991 0.0383632 0.184653 14 27 86 
-0.0487087 0.0146263 0.185777 23 37 88 
-0.048391 0.0184246 0.18584 28 31 88 
-0.0485213 0.020498 0.185777 28 31 88 
-0.0482993 0.0234369 0.185403 24 27 84 
-0.0481282 0.0254192 0.185465 27 25 85 
-0.0476405 0.0266117 0.185361 31 24 87 
-0.0471435 0.02754 0.185486 30 23 86 
-0.0461466 0.029396 0.185736 16 24 91 
-0.0452871 0.0304473 0.185715 16 27 84 
-0.044343 0.0314138 0.185684 18 28 83 
-0.0433101 0.0322915 0.185652 23 26 85 
-0.0415919 0.0327323 0.185153 19 28 71 
-0.0406476 0.0335756 0.185434 14 22 78 
-0.0394978 0.0342195 0.185559 12 21 90 
-0.037573 0.0346924 0.185371 8 29 83 
-0.00750022 0.0344496 0.185194 9 27 91 
-0.0363776 0.0352992 0.18559 7 29 82 
-0.0102005 0.0352509 0.18509 9 27 91 
-0.00839782 0.0353592 0.185652 9 27 91 
-0.035204 0.0361685 0.185777 10 29 88 
-0.0334206 0.0367736 0.185236 9 27 91 
-0.0103616 0.036401 0.185444 9 27 91 
-0.0325254 0.0373364 0.185621 13 26 90 
-0.0314763 0.0374482 0.185577 13 26 90 
-0.0296967 0.03763 0.18509 14 25 91 
-0.0124063 0.037364 0.185215 11 26 91 
-0.0113294 0.0373267 0.185496 11 26 90 
-0.0285371 0.0384223 0.185496 19 34 92 
-0.0255056 0.0387942 0.185403 11 24 80 
-0.0163028 0.0385379 0.185153 13 26 83 
-0.0145172 0.0384421 0.185371 12 25 83 
-0.0133328 0.0385347 0.185632 20 35 93 
-0.0118548 0.0383538 0.185902 14 27 85 
-0.0243769 0.0391463 0.185652 45 73 129 
-0.0233945 0.0393763 0.185559 18 42 99 
-0.0214735 0.0393911 0.185215 39 64 120 
-0.0203494 0.0395148 0.185403 29 51 109 
-0.018474 0.039385 0.185478 19 42 98 
-0.0164899 0.039421 0.185777 24 51 108 
-0.0154471 0.0391317 0.185715 39 64 120 
-0.0222881 0.039991 0.185777 9 24 89 
-0.0196354 0.0403054 0.185902 11 22 88 
-0.0177923 0.0402042 0.185902 11 22 88 
-0.0489833 0.015781 0.186652 9 37 83 
-0.0493319 0.0175981 0.186652 7 35 81 
-0.0493857 0.0186255 0.186652 9 34 80 
-0.0492171 0.0206327 0.186715 9 37 83 
-0.048739 0.0215081 0.186402 24 35 88 
-0.0486827 0.0234966 0.186496 23 37 88 
-0.0480428 0.0259814 0.186527 28 31 88 
-0.0473633 0.0274613 0.186527 28 26 86 
-0.0468421 0.0286442 0.186027 31 24 87 
-0.0463659 0.0304172 0.186559 30 23 86 
-0.045537 0.0315317 0.186427 15 25 89 
-0.044512 0.0323799 0.186438 17 27 84 
-0.0425338 0.0329423 0.186027 27 27 78 
-0.0435062 0.0331794 0.18684 17 27 84 
-0.0414567 0.033658 0.186309 22 28 74 
-0.0404254 0.0344242 0.186465 16 25 74 
-0.0394996 0.0351799 0.186777 11 21 87 
-0.0384826 0.0353667 0.18659 15 22 89 
-0.0374857 0.0355757 0.186569 12 25 83 
-0.0361249 0.036145 0.186652 7 31 83 
-0.034682 0.0368687 0.186527 10 26 86 
-0.00900318 0.0366188 0.186027 9 27 91 
-0.0334758 0.0375882 0.186444 14 26 87 
-0.0100791 0.0376552 0.186152 15 27 88 
-0.0326275 0.038199 0.186715 11 24 80 
-0.0315045 0.0383828 0.186602 20 36 92 
-0.0304489 0.0384392 0.186434 22 40 95 
-0.0294633 0.0386644 0.186361 34 56 111 
-0.0284724 0.0392382 0.186577 30 53 113 
-0.0273779 0.0394085 0.186502 22 44 104 
-0.0255385 0.0396333 0.18659 7 25 87 
-0.0144054 0.039635 0.186277 6 26 88 
-0.0124463 0.039325 0.186611 33 56 115 
-0.0114541 0.0390417 0.186777 45 73 129 
-0.0241295 0.0402041 0.186902 10 22 85 
-0.0205911 0.040773 0.186152 11 21 84 
-0.016344 0.0403901 0.186302 10 22 86 
-0.0220909 0.0411004 0.186902 12 21 83 
-0.019382 0.0413233 0.186559 11 20 82 
-0.0183429 0.0412778 0.186527 11 20 82 
-0.0172859 0.0412205 0.186527 11 20 82 
-0.0163158 0.0412936 0.186902 11 20 82 
-0.04811 0.0128575 0.187277 23 37 88 
-0.0490909 0.0145519 0.187652 6 34 80 
-0.0498674 0.019744 0.187652 13 32 75 
-0.0493648 0.0214466 0.187402 10 32 76 
-0.0490994 0.0245524 0.187652 6 34 80 
-0.048543 0.0254576 0.187444 13 37 84 
-0.0481441 0.0264836 0.187777 23 37 88 
-0.0476414 0.0275609 0.187559 27 30 87 
-0.0471178 0.0290881 0.187465 27 25 85 
-0.046377 0.0315942 0.187402 31 24 87 
-0.0453825 0.0326473 0.187152 16 26 90 
-0.0442788 0.0334564 0.187527 17 27 84 
-0.0426394 0.0337481 0.187215 23 26 85 
-0.04142 0.0345002 0.187327 26 28 77 
-0.0419493 0.0352139 0.187902 23 26 85 
-0.0403215 0.0354224 0.187402 18 29 70 
-0.0393228 0.036447 0.187621 15 25 86 
-0.0374354 0.0364933 0.187246 16 26 85 
-0.0382508 0.0370687 0.18784 14 22 85 
-0.0362559 0.0372583 0.187746 12 27 81 
-0.035247 0.0374116 0.187602 9 26 81 
-0.00864439 0.0374118 0.18734 14 27 86 
-0.0340768 0.0379825 0.187527 14 27 83 
-0.00965744 0.0384052 0.18759 39 64 120 
-0.0329625 0.0393 0.187902 9 24 89 
-0.0313932 0.0394122 0.187361 7 25 87 
-0.0303966 0.0396313 0.187309 10 23 88 
-0.0104157 0.0391492 0.187777 9 24 89 
-0.0292474 0.0402072 0.187652 12 21 83 
-0.0273259 0.040469 0.18734 11 21 84 
-0.0263143 0.0404392 0.187277 11 21 84 
-0.0252867 0.0403975 0.187246 11 21 84 
-0.0142948 0.0405943 0.187152 12 21 83 
-0.0127472 0.0401289 0.187527 11 21 85 
-0.0234394 0.0412108 0.187777 12 21 83 
-0.0206205 0.0418807 0.18734 11 20 82 
-0.0194096 0.042196 0.187715 17 26 88 
-0.0183203 0.0421181 0.187777 17 26 88 
-0.0172593 0.0420619 0.187777 17 26 88 
-0.0486927 0.0132872 0.188652 6 34 80 
-0.0500139 0.0183366 0.188527 19 31 78 
-0.0500303 0.0202859 0.188777 19 31 78 
-0.0497283 0.0214862 0.18834 19 31 78 
-0.0495634 0.0225239 0.188486 16 31 76 
-0.0495486 0.0244496 0.188558 16 31 76 
-0.0483465 0.027415 0.188502 15 35 83 
-0.0474485 0.0294187 0.188452 23 33 86 
-0.0470098 0.0310905 0.188777 28 31 88 
-0.0462506 0.0322653 0.188694 31 24 87 
-0.0453764 0.0333275 0.188444 22 25 91 
-0.0445132 0.0343931 0.188402 15 25 89 
-0.0434062 0.035406 0.188652 17 26 82 
-0.0421407 0.0363626 0.188902 17 22 81 
-0.0406082 0.0365746 0.188402 18 25 73 
-0.0393898 0.0373657 0.188558 16 26 79 
-0.0083904 0.0377971 0.188402 34 56 111 
-0.0381481 0.0381901 0.188902 25 26 84 
-0.0364929 0.0384747 0.18859 31 39 97 
-0.0345941 0.038517 0.188215 24 43 97 
-0.0353977 0.0390891 0.18884 22 25 90 
-0.0333845 0.0399992 0.18884 13 22 84 
-0.0315772 0.0404653 0.188402 12 21 83 
-0.0112956 0.0402628 0.188652 12 21 83 
-0.0302853 0.0412129 0.188777 11 20 82 
-0.0283668 0.0412804 0.188502 12 21 83 
-0.0264258 0.0415912 0.18834 15 24 86 
-0.0243915 0.0415316 0.188215 12 21 83 
-0.0223641 0.0417216 0.18809 11 20 82 
-0.0154087 0.0417981 0.188277 11 20 82 
-0.0142606 0.0414417 0.188402 12 21 83 
-0.0127739 0.0410235 0.188652 13 22 84 
-0.025217 0.0421399 0.188777 16 25 87 
-0.0234386 0.0420928 0.188652 16 25 87 
-0.02145 0.0423164 0.188433 15 24 86 
-0.0165198 0.0421995 0.188777 16 25 87 
-0.049384 0.0148331 0.189902 19 31 78 
-0.0494824 0.0159366 0.189777 19 31 78 
-0.0503635 0.0215333 0.189496 16 31 82 
-0.0501268 0.0225088 0.18959 17 31 82 
-0.0499562 0.0238086 0.189527 18 32 83 
-0.0496597 0.0253413 0.189496 18 31 79 
-0.049122 0.027597 0.189527 16 31 76 
-0.0485322 0.0285238 0.189302 9 32 76 
-0.0484107 0.0295472 0.189652 9 32 77 
-0.0473695 0.0314112 0.189735 18 37 86 
-0.0463844 0.0323634 0.189777 25 28 85 
-0.0454901 0.0334129 0.189569 31 24 87 
-0.0446808 0.034784 0.189402 23 23 88 
-0.0434589 0.0363433 0.189465 15 26 87 
-0.0068591 0.036935 0.189152 14 27 85 
-0.0424013 0.0372241 0.189683 17 27 85 
-0.0413756 0.0374374 0.189452 18 25 83 
-0.0403719 0.0375032 0.189235 15 21 76 
-0.0394231 0.0383616 0.189599 23 29 81 
-0.00866258 0.0386239 0.189027 3 29 87 
-0.0381607 0.0391843 0.189652 20 36 90 
-0.0365004 0.0395651 0.189352 18 26 89 
-0.00937372 0.0394758 0.189152 10 22 86 
-0.035595 0.0402825 0.189777 12 19 84 
-0.0344588 0.0404662 0.189677 14 18 85 
-0.0325065 0.0408418 0.189194 14 23 85 
-0.0103232 0.0404274 0.189527 11 20 82 
-0.0332638 0.0411402 0.189902 14 21 84 
-0.0315396 0.0414469 0.189352 13 22 84 
-0.01406 0.0418637 0.189402 16 25 87 
-0.0124841 0.0415268 0.189652 14 23 85 
-0.0114399 0.0411088 0.189715 11 20 82 
-0.0305377 0.0420837 0.189715 14 23 85 
-0.0294948 0.0422765 0.189746 13 22 84 
-0.0274368 0.0423861 0.189577 14 23 85 
-0.0244991 0.0426953 0.189277 13 22 84 
-0.0224057 0.0428438 0.189277 13 22 84 
-0.0204109 0.0428251 0.189027 13 22 84 
-0.0190853 0.0427574 0.189027 13 22 84 
-0.0174485 0.0426927 0.189485 13 22 84 
-0.015311 0.042256 0.189444 14 23 85 
-0.0250366 0.0432735 0.189902 13 22 84 
-0.0232511 0.0432275 0.189777 13 22 84 
-0.0214607 0.0431798 0.189652 13 22 84 
-0.0196024 0.0433295 0.189683 12 21 83 
-0.0497338 0.018047 0.190902 17 31 82 
-0.0506944 0.0195568 0.190527 15 32 87 
-0.0512641 0.0204428 0.190735 18 32 89 
-0.0510247 0.022821 0.190777 16 33 90 
-0.0510539 0.0243131 0.190902 18 35 92 
-0.050184 0.0254192 0.19061 14 31 84 
-0.0498269 0.0263064 0.190277 18 32 83 
-0.0492204 0.0284878 0.190496 19 31 78 
-0.0486188 0.0303928 0.190502 15 31 76 
-0.04811 0.0313091 0.190527 10 32 76 
-0.0472297 0.0322124 0.190496 16 37 85 
-0.0461653 0.0333272 0.190777 23 32 86 
-0.0454163 0.0345752 0.190602 29 24 86 
-0.04499 0.035555 0.190777 25 27 87 
-0.0442463 0.0363942 0.190464 16 29 86 
-0.0434667 0.0374836 0.190427 14 25 85 
-0.0422855 0.0384431 0.19061 13 22 85 
-0.0404793 0.0385875 0.190214 22 27 79 
-0.00742538 0.0383651 0.190339 7 25 87 
-0.0410146 0.0391268 0.190902 20 30 76 
-0.0394124 0.039472 0.190433 9 27 77 
-0.00803716 0.0394296 0.190339 11 21 84 
-0.0382524 0.0402696 0.190652 10 22 79 
-0.0365392 0.0405042 0.190235 10 18 79 
-0.0094126 0.0406405 0.190277 11 20 82 
-0.0372444 0.0409806 0.190902 9 18 80 
-0.0353298 0.0412644 0.190558 14 21 82 
-0.0343193 0.0414819 0.190527 16 19 84 
-0.0105161 0.0415592 0.190527 15 24 86 
-0.0324014 0.0422671 0.190558 13 22 84 
-0.028335 0.0428645 0.19009 13 22 84 
-0.0159485 0.0427774 0.190027 13 22 84 
-0.0145419 0.0426632 0.190152 13 22 84 
-0.0132487 0.0425445 0.190308 13 22 84 
-0.0116174 0.0424762 0.190777 13 22 84 
-0.0306678 0.0432513 0.190777 11 20 82 
-0.0295201 0.0434336 0.190677 10 19 81 
-0.0274185 0.0434561 0.190464 11 20 82 
-0.0264114 0.0434393 0.190371 11 20 82 
-0.0224335 0.0437001 0.190277 10 19 81 
-0.0205177 0.0437881 0.190235 10 19 81 
-0.0183179 0.0438537 0.190214 10 19 81 
-0.0173306 0.0434723 0.190194 12 21 83 
-0.0143444 0.0435112 0.190652 11 20 82 
-0.012866 0.0433541 0.190902 11 20 82 
-0.0254457 0.0440004 0.190839 11 20 82 
-0.024359 0.0441513 0.190735 12 21 83 
-0.0212375 0.0443059 0.190839 14 23 85 
-0.0192285 0.0442868 0.190589 11 20 82 
-0.0164299 0.0440675 0.190839 11 20 82 
-0.0153234 0.0439914 0.190902 11 20 82 
-0.049695 0.0174254 0.191714 16 31 83 
-0.0510078 0.0185066 0.191777 21 29 87 
-0.052052 0.0198037 0.191902 19 29 86 
-0.0521582 0.0216506 0.191839 20 30 87 
-0.052206 0.0226871 0.191839 20 30 87 
-0.0513454 0.0252768 0.191714 21 29 87 
-0.0505834 0.0264477 0.191402 16 33 88 
-0.0502084 0.0283044 0.191714 15 32 87 
-0.0499984 0.0293183 0.191714 15 32 85 
-0.0493547 0.0303965 0.191496 17 31 82 
-0.0482947 0.0322596 0.19161 15 31 76 
-0.047459 0.0333804 0.191464 9 32 77 
-0.0465044 0.034378 0.191402 23 37 88 
-0.0451998 0.0362372 0.191714 17 26 81 
-0.0443119 0.0373019 0.191464 14 27 83 
-0.00606447 0.0372824 0.191777 24 51 108 
-0.0434815 0.0383729 0.191627 13 24 84 
-0.0423254 0.0392182 0.191527 15 22 84 
-0.00708299 0.0396199 0.191152 11 20 82 
-0.0404843 0.0403178 0.191777 20 24 78 
-0.00759445 0.0406182 0.191339 15 24 86 
-0.0384652 0.0412429 0.191777 12 21 81 
-0.00945009 0.0415944 0.191027 16 25 87 
-0.0084302 0.0414167 0.191402 15 24 86 
-0.0371664 0.0421566 0.191902 11 21 76 
-0.035358 0.0423165 0.191694 14 21 77 
-0.0335438 0.042459 0.191277 14 18 80 
-0.0102147 0.0423452 0.191214 13 22 84 
-0.00849901 0.0422887 0.191902 13 22 84 
-0.032317 0.0432217 0.19161 11 22 82 
-0.0113723 0.0433001 0.19136 10 19 81 
-0.0302736 0.0441422 0.19161 14 23 84 
-0.0283717 0.044461 0.191402 12 21 82 
-0.0273584 0.0444416 0.191319 12 21 82 
-0.0263086 0.0446396 0.191339 13 22 82 
-0.0232377 0.0448091 0.191152 14 24 83 
-0.0183458 0.0447295 0.191194 13 23 82 
-0.0145104 0.044518 0.191527 13 22 83 
-0.0134718 0.0443537 0.19161 14 23 84 
-0.0274082 0.0452705 0.191902 12 20 78 
-0.0245736 0.0454346 0.191777 13 20 77 
-0.0225401 0.0453991 0.191589 13 20 77 
-0.0214323 0.0453176 0.191683 13 20 77 
-0.0203513 0.0452564 0.191714 14 20 79 
-0.0178648 0.0453323 0.191902 12 20 78 
-0.0526078 0.0204805 0.192402 21 29 85 
-0.0532688 0.021461 0.19261 23 27 81 
-0.0523956 0.0235627 0.192443 19 29 86 
-0.0523084 0.0254266 0.192714 20 30 87 
-0.0523431 0.0264463 0.192745 20 30 87 
-0.0515031 0.0276006 0.192339 19 28 85 
-0.0521132 0.0281743 0.192902 19 29 86 
-0.051341 0.0293717 0.192818 19 27 85 
-0.0504052 0.030405 0.192693 17 31 89 
-0.0493338 0.0314275 0.192464 15 31 84 
-0.0481928 0.0334243 0.192568 19 31 78 
-0.0474232 0.034534 0.192464 14 30 77 
-0.0465242 0.0355422 0.192527 14 28 84 
-0.0451439 0.037146 0.192714 16 26 81 
-0.0441821 0.0381439 0.192652 15 25 79 
-0.00594279 0.038446 0.192152 10 22 85 
-0.0431798 0.0393438 0.192485 17 25 82 
-0.00507767 0.0397055 0.192902 13 22 84 
-0.0423814 0.0403094 0.192627 24 36 87 
-0.00597111 0.0399611 0.192277 13 22 84 
-0.0411726 0.0410194 0.192777 12 21 83 
-0.0394098 0.0414668 0.192485 11 19 79 
-0.00716873 0.0415799 0.192277 13 22 84 
-0.0382717 0.042137 0.19261 13 23 78 
-0.0363978 0.0427846 0.192352 12 20 76 
-0.0356054 0.0433413 0.192714 12 20 76 
-0.0344073 0.0432749 0.192452 19 21 79 
-0.0316895 0.0438616 0.192152 11 22 83 
-0.0103717 0.0438521 0.192152 14 23 85 
-0.008435 0.0430775 0.192652 10 19 81 
-0.0296672 0.0448053 0.192089 13 21 81 
-0.0132957 0.0449505 0.192402 12 20 78 
-0.0114198 0.0444872 0.192485 13 22 81 
-0.0285553 0.0454469 0.192308 16 20 77 
-0.0255292 0.0456532 0.192027 16 20 77 
-0.019465 0.045725 0.192527 18 21 78 
-0.0163172 0.0453761 0.192339 15 20 78 
-0.0145163 0.0453143 0.192527 14 20 77 
-0.0273842 0.0460481 0.192652 17 20 77 
-0.0263839 0.0460427 0.192527 17 20 77 
-0.0245 0.0461835 0.19262 19 22 80 
-0.0234666 0.046156 0.192558 19 22 80 
-0.0214819 0.0462325 0.192839 21 24 83 
-0.0203826 0.0461623 0.192902 21 24 83 
-0.0182354 0.0460612 0.192902 17 20 77 
-0.0541542 0.021753 0.193652 19 27 83 
-0.0533825 0.0223698 0.193339 23 27 80 
-0.0532709 0.0236099 0.193464 23 27 79 
-0.0533164 0.0246481 0.193464 23 28 77 
-0.0532246 0.0266167 0.193485 23 28 79 
-0.0530856 0.028279 0.19361 23 27 79 
-0.0524636 0.0294648 0.19358 21 28 84 
-0.0514369 0.0304938 0.193464 19 28 86 
-0.0510965 0.03141 0.193714 19 28 86 
-0.0501353 0.0324191 0.193652 18 33 90 
-0.049163 0.0334145 0.19362 14 31 85 
-0.0482933 0.0343428 0.193502 16 29 79 
-0.0473666 0.0354302 0.193495 15 27 82 
-0.0464435 0.0365213 0.193477 15 29 85 
-0.0442396 0.0384464 0.193735 16 26 80 
-0.0430498 0.0402076 0.193902 35 42 91 
-0.0420573 0.0411849 0.193902 1 26 78 
-0.0405691 0.0416584 0.193318 10 18 81 
-0.00650518 0.0415611 0.193027 13 22 84 
-0.0393926 0.0424617 0.193558 13 19 77 
-0.0382202 0.0432732 0.193777 10 20 75 
-0.036536 0.0435491 0.193235 11 19 76 
-0.00752643 0.0431531 0.193902 11 20 82 
-0.0352899 0.0443038 0.19362 12 20 77 
-0.0334051 0.044496 0.193568 18 21 79 
-0.0317384 0.0447323 0.193402 12 21 82 
-0.0100653 0.0447337 0.193402 14 20 79 
-0.00875499 0.0442917 0.193777 13 21 81 
-0.032348 0.0453625 0.193902 16 21 82 
-0.0304959 0.0454869 0.193527 18 22 79 
-0.0132727 0.0457626 0.193089 17 20 77 
-0.0115129 0.0454691 0.193427 17 21 78 
-0.0293524 0.0461745 0.19361 20 23 81 
-0.0265556 0.0465419 0.193402 18 22 82 
-0.0255232 0.0465159 0.193339 18 22 82 
-0.0223697 0.0466484 0.193277 22 25 84 
-0.0194437 0.0464699 0.193422 19 22 82 
-0.0174459 0.0466095 0.193495 19 23 83 
-0.0163804 0.0465684 0.193464 18 22 82 
-0.0153522 0.0464148 0.193527 19 23 82 
-0.0124369 0.0460443 0.193714 21 24 83 
-0.0239726 0.0470394 0.193902 15 20 81 
-0.0214164 0.0470011 0.193652 15 20 81 
-0.0488803 0.0157642 0.194777 15 32 85 
-0.053414 0.0226549 0.194527 25 30 79 
-0.0536285 0.0253918 0.194214 25 30 79 
-0.0536143 0.0273367 0.194527 19 27 83 
-0.0532888 0.0295098 0.194214 23 28 77 
-0.0526995 0.0306563 0.194068 23 27 81 
-0.0523847 0.0322748 0.194735 24 28 82 
-0.0513713 0.0332307 0.194818 19 29 86 
-0.0503846 0.0342179 0.194818 19 30 86 
-0.0492328 0.0350419 0.194777 22 30 88 
-0.00366507 0.035661 0.194589 28 48 104 
-0.0482004 0.0359807 0.194901 19 28 79 
-0.0473176 0.0362186 0.194495 18 28 83 
-0.0463279 0.0372016 0.194495 14 26 82 
-0.00414757 0.0373283 0.194402 9 23 87 
-0.0452627 0.0382326 0.194714 18 28 83 
-0.0442823 0.0389812 0.194652 18 28 85 
-0.00456803 0.0407126 0.194527 14 23 85 
-0.00615759 0.0419226 0.194277 13 22 84 
-0.0412098 0.0421582 0.194443 7 18 76 
-0.0402234 0.043327 0.194901 10 19 72 
-0.00713942 0.0436578 0.194714 13 22 82 
-0.0384656 0.0442964 0.194839 11 19 75 
-0.0375076 0.0444683 0.194502 10 19 74 
-0.0363627 0.0454208 0.194777 12 18 73 
-0.0345373 0.0455696 0.194339 17 20 76 
-0.0335275 0.0455578 0.194245 18 22 77 
-0.0105048 0.0457774 0.194277 21 24 83 
-0.00939077 0.0453262 0.194443 19 22 79 
-0.0351252 0.0461808 0.194901 19 24 81 
-0.0322588 0.0463126 0.194652 15 20 80 
-0.0303481 0.0463958 0.194402 17 22 82 
-0.014053 0.0469441 0.194402 15 20 81 
-0.0114833 0.0465059 0.194589 18 22 82 
-0.0291894 0.0470159 0.194714 14 22 82 
-0.027455 0.0472742 0.194464 17 24 84 
-0.0264205 0.0472491 0.194402 17 24 84 
-0.022456 0.0475968 0.19437 16 25 85 
-0.020353 0.0475311 0.194277 16 25 85 
-0.0193424 0.0473875 0.194318 15 24 84 
-0.0173713 0.0473854 0.194308 17 24 84 
-0.0153984 0.0474974 0.194485 21 29 89 
-0.0214395 0.0481604 0.194901 61 79 129 
-0.0182036 0.048016 0.194901 34 44 101 
-0.016367 0.0479691 0.194777 34 44 101 
-0.0480055 0.0127803 0.195401 14 31 84 
-0.0536546 0.0242879 0.195651 21 29 85 
-0.0536786 0.0253067 0.195714 21 29 85 
-0.0534752 0.0286367 0.195151 19 27 83 
-0.0530452 0.0316687 0.195276 25 30 79 
-0.0522157 0.0334477 0.195526 22 28 79 
-0.0512947 0.0346056 0.195495 15 25 81 
-0.0502733 0.0355593 0.195589 16 29 82 
-0.00264082 0.0355659 0.195464 7 26 83 
-0.0494804 0.0362465 0.195735 20 30 85 
-0.00250229 0.0364868 0.195839 9 24 89 
-0.0474666 0.0373304 0.195714 19 28 85 
-0.0465636 0.0376716 0.19537 17 27 84 
-0.0027663 0.0383524 0.195026 11 20 82 
-0.0451396 0.0393401 0.195693 15 25 80 
-0.043668 0.0398503 0.195026 18 22 74 
-0.0442133 0.0403958 0.195745 16 24 78 
-0.0433848 0.0413504 0.195701 28 39 81 
-0.042455 0.0416054 0.195235 9 23 77 
-0.0411747 0.0433047 0.19561 16 22 77 
-0.0401892 0.0440639 0.195776 13 20 75 
-0.00760116 0.0448841 0.195026 18 21 78 
-0.03845 0.0450572 0.195651 10 18 75 
-0.0373999 0.0453934 0.195426 15 20 77 
-0.00834352 0.0456248 0.195276 19 22 80 
-0.0344902 0.0466839 0.195501 26 34 84 
-0.0333887 0.0467316 0.19537 18 27 78 
-0.03154 0.0469026 0.195401 20 22 81 
-0.0103003 0.0467401 0.195339 14 21 81 
-0.00865912 0.04651 0.195839 15 21 82 
-0.0303709 0.047271 0.195714 22 23 83 
-0.0293611 0.0475141 0.19562 26 36 94 
-0.0253758 0.0477818 0.195026 34 44 101 
-0.0142759 0.0477609 0.195151 34 44 101 
-0.0123923 0.0473033 0.195235 20 29 88 
-0.0274648 0.0481563 0.195776 76 97 146 
-0.0262831 0.0483154 0.195651 55 76 124 
-0.0244253 0.0483877 0.195433 68 90 138 
-0.0234251 0.0483913 0.195276 84 106 154 
-0.0204035 0.0487178 0.195464 75 101 147 
-0.0193232 0.0486703 0.195464 75 101 147 
-0.0173327 0.0485508 0.195276 86 112 158 
-0.0155691 0.048529 0.19537 52 74 122 
-0.0224244 0.0489697 0.195776 42 60 108 
-0.0186092 0.0492817 0.195901 54 67 112 
-0.0164965 0.0492244 0.195776 42 60 108 
-0.0532117 0.0219713 0.196776 21 29 85 
-0.0534658 0.0284982 0.196839 23 33 88 
-0.0531331 0.0311772 0.196589 21 29 85 
-0.0528101 0.0326209 0.196151 25 30 79 
-0.0523234 0.034361 0.196276 17 29 77 
-0.0516512 0.0354208 0.19636 17 27 78 
-0.00191174 0.0352455 0.196276 34 56 111 
-0.0505007 0.0364514 0.196426 17 28 81 
-0.0494383 0.0373693 0.196626 17 28 83 
-0.0481438 0.0383564 0.196901 20 28 84 
-0.0466654 0.0385049 0.196308 17 26 84 
-0.0463021 0.0393792 0.196714 16 25 82 
-0.0453357 0.0404012 0.19662 19 27 84 
-0.044461 0.0413392 0.196476 26 32 82 
-0.00518326 0.0417994 0.196151 10 19 81 
-0.00445736 0.0411561 0.196401 13 22 84 
-0.0433785 0.0424193 0.196495 20 24 70 
-0.00582153 0.042639 0.196089 12 22 82 
-0.0423408 0.0433738 0.196589 15 20 71 
-0.0413314 0.0444836 0.196735 13 19 73 
-0.0398244 0.0449522 0.196151 14 22 78 
-0.00573947 0.0446113 0.196464 17 20 77 
-0.00713035 0.0455972 0.196026 22 25 84 
-0.0390717 0.0462234 0.196901 63 74 113 
-0.0373544 0.0465015 0.19662 30 29 79 
-0.0354233 0.0468078 0.196214 26 31 76 
-0.00685688 0.0464391 0.196651 15 20 81 
-0.0362709 0.0471798 0.196776 84 101 137 
-0.0342861 0.0474453 0.196495 80 104 138 
-0.0332942 0.0474541 0.196339 71 94 131 
-0.0322758 0.0474424 0.196245 25 32 87 
-0.031214 0.0476465 0.196276 43 43 94 
-0.0113609 0.0478638 0.196089 61 79 129 
-0.00950657 0.0475472 0.196276 47 62 115 
-0.0083553 0.0473313 0.196526 26 36 94 
-0.0305302 0.0482567 0.196714 111 129 165 
-0.0294782 0.0484098 0.196576 95 119 162 
-0.0132618 0.0486927 0.196214 74 96 144 
-0.0105161 0.0485482 0.196568 64 87 134 
-0.0273042 0.0493552 0.196901 89 93 134 
-0.0253592 0.049157 0.196433 54 67 112 
-0.0234743 0.0495741 0.196495 86 92 133 
-0.0215646 0.0496189 0.19636 81 86 128 
-0.0196407 0.049573 0.196235 81 86 128 
-0.0174573 0.0496914 0.196089 89 93 134 
-0.0154096 0.049769 0.196401 94 100 141 
-0.0124051 0.0492311 0.196901 66 74 116 
-0.0225142 0.0501878 0.196901 127 140 178 
-0.0204392 0.0501549 0.196714 125 133 172 
-0.0183582 0.0501198 0.196526 123 127 166 
-0.0164527 0.050037 0.196526 123 127 166 
-0.0536288 0.0235982 0.197339 20 30 85 
-0.0540237 0.0247011 0.197901 11 26 79 
-0.0537951 0.0253056 0.197026 20 30 85 
-0.0540988 0.0265411 0.197901 11 26 79 
-0.0536835 0.0286414 0.197839 16 29 83 
-0.0532867 0.0302621 0.197651 23 33 88 
-0.0529099 0.0323964 0.197464 21 28 83 
-0.0525322 0.034522 0.197276 17 30 80 
-0.0514824 0.0364483 0.197557 18 28 77 
-0.0504434 0.0375568 0.197376 19 27 80 
-0.0494111 0.0385146 0.197476 17 27 85 
-0.0484424 0.0393872 0.197682 19 29 82 
-0.0473979 0.0394955 0.197401 21 30 85 
-0.0464545 0.0403962 0.197526 18 29 84 
-0.0453896 0.0413755 0.197401 20 25 82 
-0.0443945 0.0423744 0.197376 33 41 87 
-0.043371 0.0433474 0.197426 19 24 72 
-0.0423642 0.0443366 0.197426 15 20 68 
-0.00441112 0.0445204 0.197401 18 21 78 
-0.0414207 0.0452193 0.197526 33 40 89 
-0.0404973 0.0456608 0.197235 16 24 77 
-0.00537869 0.0456562 0.197276 16 21 82 
-0.038502 0.0473917 0.197701 114 135 171 
-0.00734556 0.0476707 0.197276 82 103 153 
-0.00626993 0.0472516 0.197339 34 44 101 
-0.00526367 0.0471107 0.197651 34 44 101 
-0.0375541 0.0482434 0.197651 38 42 95 
-0.0356187 0.0483029 0.197214 115 133 164 
-0.0334993 0.048717 0.197276 103 114 155 
-0.032491 0.0487156 0.197151 116 138 176 
-0.0314398 0.0489314 0.197151 121 128 167 
-0.00919037 0.0487324 0.197214 55 72 115 
-0.0365384 0.0492308 0.197651 112 134 164 
-0.0354557 0.0493599 0.197601 87 108 140 
-0.0344435 0.0494166 0.19763 38 41 90 
-0.0323244 0.0495878 0.197651 119 138 175 
-0.0303518 0.0494757 0.197485 110 123 157 
-0.0284883 0.0495496 0.197276 91 95 135 
-0.026413 0.0497603 0.197151 123 127 166 
-0.0134685 0.0497617 0.197026 123 127 166 
-0.0113187 0.0495398 0.197464 92 100 140 
-0.00556718 0.0494248 0.197839 106 110 150 
-0.0293199 0.0501713 0.197901 40 38 90 
-0.0275279 0.0501559 0.197714 127 140 178 
-0.0254742 0.0503859 0.197526 124 138 175 
-0.0244823 0.0503999 0.197339 124 138 176 
-0.0234614 0.0503944 0.197214 124 138 176 
-0.0213408 0.0505824 0.197151 121 137 174 
-0.0192699 0.0506678 0.197151 121 136 173 
-0.0174751 0.0506335 0.197307 123 136 174 
-0.0154552 0.0504844 0.197526 124 137 175 
-0.014442 0.0504676 0.197735 123 136 174 
-0.0123232 0.0500334 0.197714 127 140 178 
-0.0224679 0.0512418 0.197714 122 135 172 
-0.0204946 0.0512534 0.197693 122 135 171 
-0.0185907 0.0512881 0.197901 125 138 174 
-0.053065 0.0206025 0.198776 20 30 85 
-0.0536876 0.0225106 0.198714 11 26 79 
-0.054234 0.0235656 0.198776 13 29 77 
-0.0546078 0.0254177 0.198359 14 28 73 
-0.0544909 0.0283917 0.198568 13 27 73 
-0.0542352 0.0293846 0.198682 12 27 78 
-0.053956 0.030598 0.198901 11 26 79 
-0.0533058 0.0314732 0.198589 17 29 83 
-0.0530843 0.0335022 0.198714 20 29 81 
-0.0527447 0.0346869 0.198276 14 28 78 
-0.0524427 0.0356234 0.198526 17 30 79 
-0.0521393 0.0365608 0.198776 17 29 76 
-0.0516039 0.0376214 0.198401 22 30 77 
-0.0508523 0.0385413 0.198151 20 27 76 
-0.0496048 0.0395892 0.198276 16 30 84 
-0.049323 0.040498 0.198818 15 27 83 
-0.0475247 0.0407106 0.198245 21 30 83 
-0.0481088 0.0412878 0.198901 20 28 84 
-0.0464937 0.0414817 0.198451 19 27 82 
-0.00380745 0.0414283 0.198776 11 20 82 
-0.0453645 0.0424557 0.198501 18 23 74 
-0.00400185 0.0425748 0.198526 13 21 81 
-0.0442982 0.0433667 0.198432 19 33 80 
-0.0432771 0.0443496 0.198464 14 20 70 
-0.0422544 0.0453322 0.198495 28 32 79 
-0.0412683 0.0462386 0.198776 110 134 169 
-0.0396817 0.0468872 0.198151 53 54 98 
-0.0387386 0.0477295 0.198651 111 134 169 
-0.00595146 0.0474139 0.198526 107 133 180 
-0.0377449 0.0487406 0.198589 64 70 122 
-0.00743996 0.0485517 0.198464 66 74 116 
-0.0104726 0.0498436 0.198089 127 140 178 
-0.0085197 0.04948 0.198443 113 120 159 
-0.00632676 0.0492663 0.198526 106 110 150 
-0.0354296 0.0502049 0.198568 97 112 146 
-0.0343818 0.0505525 0.198301 31 28 81 
-0.0332459 0.0505211 0.198089 70 71 117 
-0.0315991 0.0504245 0.198214 119 137 170 
-0.0305327 0.0503846 0.198214 38 54 98 
-0.0283069 0.0507433 0.198464 109 115 159 
-0.0132155 0.0507116 0.198214 123 137 174 
-0.0114461 0.0505722 0.198432 123 137 174 
-0.00960418 0.0503933 0.198776 121 136 173 
-0.0334773 0.0512979 0.198693 27 24 78 
-0.0295236 0.0509578 0.198776 31 35 89 
-0.0271728 0.0511621 0.198651 123 136 172 
-0.0254054 0.0516712 0.198432 102 110 150 
-0.0235965 0.051902 0.198276 126 137 174 
-0.0214876 0.0518532 0.198151 126 137 174 
-0.0174577 0.0514463 0.198401 125 137 174 
-0.0163588 0.0512616 0.198589 125 137 174 
-0.0153577 0.0511383 0.198568 124 137 173 
-0.0123878 0.0512816 0.198839 122 135 171 
-0.0245022 0.0523314 0.198714 30 27 84 
-0.0223651 0.0522655 0.198651 30 27 84 
-0.0202892 0.0523556 0.198651 63 65 115 
-0.0185247 0.0520943 0.198714 82 86 129 
-0.0535143 0.0215282 0.199151 11 26 79 
-0.0551745 0.0247231 0.199276 17 28 65 
-0.0554988 0.0265684 0.199307 20 29 65 
-0.0561481 0.0276778 0.199901 27 29 66 
-0.0555314 0.0286114 0.199464 20 29 65 
-0.0555227 0.0296007 0.19962 21 29 65 
-0.0552722 0.0316045 0.199838 22 29 64 
-0.0545224 0.0325259 0.199676 17 30 73 
-0.054287 0.0336363 0.199901 18 30 77 
-0.0535697 0.0344485 0.199505 17 28 78 
-0.0517296 0.038381 0.199464 20 27 74 
-0.0507538 0.0396633 0.199401 15 29 80 
-0.0493486 0.0413155 0.199576 16 27 83 
-0.0485353 0.0422084 0.199818 18 28 83 
-0.047529 0.0423109 0.199501 17 27 80 
-0.0464621 0.0425272 0.199276 17 25 77 
-0.0456427 0.0433421 0.199464 20 29 75 
-0.0444488 0.0442617 0.199526 18 32 78 
-0.0433608 0.0452079 0.199432 13 21 72 
-0.042427 0.0461699 0.199693 32 37 81 
-0.0411967 0.0469616 0.199776 111 135 165 
-0.0393945 0.0476744 0.199484 115 137 169 
-0.0384305 0.0482294 0.199526 120 136 172 
-0.0375676 0.0488987 0.199776 51 43 95 
-0.0366319 0.0497127 0.199526 92 91 136 
-0.00718229 0.049776 0.199651 121 137 174 
-0.00868712 0.0506661 0.199526 122 135 172 
-0.0343883 0.051265 0.199526 26 27 87 
-0.0325037 0.0517487 0.199401 37 41 96 
-0.0314707 0.0516522 0.199307 25 37 96 
-0.0285361 0.0515533 0.199276 69 74 125 
-0.0154513 0.0517777 0.199401 82 86 129 
-0.0143473 0.0517312 0.199401 82 86 129 
-0.0133334 0.0517397 0.199214 82 86 129 
-0.0104351 0.0512932 0.199432 124 136 172 
-0.0293752 0.0521841 0.199901 17 20 81 
-0.0272275 0.0523354 0.199693 24 22 81 
-0.0254003 0.0525314 0.199359 28 24 86 
-0.0232445 0.0526787 0.199151 27 23 87 
-0.0214005 0.0526412 0.199026 27 23 87 
-0.0192608 0.0528109 0.199359 24 23 86 
-0.0175186 0.0526841 0.199568 25 25 85 
-0.0165352 0.0524366 0.199693 27 26 84 
-0.0114123 0.052025 0.199776 30 27 84 
-0.0246122 0.0530768 0.199776 23 24 86 
-0.0204032 0.0530003 0.199464 23 24 86 
-0.0561689 0.02662 0.200588 33 29 67 
-0.0562605 0.0292755 0.200318 31 29 66 
-0.055504 0.0312651 0.200776 24 31 66 
-0.055397 0.0324485 0.200401 21 29 67 
-0.0554052 0.0334613 0.200495 21 28 68 
-0.054487 0.034575 0.200213 18 29 74 
-0.0550829 0.0351344 0.200901 17 24 69 
-0.0535645 0.0356651 0.200234 16 28 77 
-0.0527753 0.0366435 0.200088 17 28 78 
-0.0530654 0.0371531 0.200901 15 24 75 
-0.052136 0.0382492 0.200651 19 26 73 
-0.0511349 0.0395158 0.200651 18 24 75 
-0.0504788 0.040626 0.20037 16 26 80 
-0.0501802 0.0415816 0.200588 16 26 83 
-0.0493935 0.0424571 0.200526 18 27 82 
-0.0482633 0.0434444 0.200776 15 26 81 
-0.0465163 0.0437168 0.200276 13 26 77 
-0.045367 0.0445872 0.200401 37 46 88 
-0.0442834 0.0455273 0.200588 10 23 72 
-0.0434972 0.0462576 0.200651 13 21 71 
-0.0421671 0.0472098 0.200776 35 38 84 
-0.0404724 0.0477816 0.200401 121 137 169 
-0.0050841 0.0479206 0.200276 42 60 108 
-0.00368491 0.0477102 0.200776 42 60 108 
-0.0393766 0.0483439 0.200557 92 104 139 
-0.0382155 0.0491084 0.200901 112 131 160 
-0.00492763 0.0498845 0.200776 122 135 173 
-0.0363705 0.0503009 0.200734 38 35 86 
-0.0354071 0.051118 0.200776 25 32 79 
-0.00948571 0.0518054 0.200276 30 27 84 
-0.00853726 0.0514506 0.200463 104 111 151 
-0.00773829 0.0510322 0.200901 126 137 174 
-0.0333562 0.0521166 0.200651 17 20 79 
-0.0323325 0.0523659 0.200557 18 19 79 
-0.0313371 0.0523829 0.20037 16 23 83 
-0.0303153 0.0523812 0.200245 15 21 83 
-0.0284283 0.052563 0.200276 15 20 81 
-0.0154109 0.052613 0.200151 23 24 86 
-0.014375 0.0526768 0.200401 24 23 86 
-0.0124975 0.0526691 0.200463 25 23 86 
-0.0104829 0.0525503 0.200588 25 23 86 
-0.0295573 0.0529668 0.200838 14 17 80 
-0.0274877 0.0532032 0.200651 18 20 81 
-0.0265003 0.0532269 0.200432 20 21 82 
-0.025433 0.0535186 0.200551 18 20 80 
-0.0234027 0.0535753 0.200318 17 19 78 
-0.0214793 0.0536084 0.200568 16 19 78 
-0.0194248 0.0534707 0.200463 19 21 82 
-0.0174572 0.0533681 0.200557 19 21 82 
-0.0164575 0.0533677 0.200734 19 20 81 
-0.055796 0.0325074 0.201713 26 30 69 
-0.0558692 0.034611 0.201713 21 26 71 
-0.0544591 0.0365055 0.201401 22 26 71 
-0.0512182 0.0401672 0.201567 19 24 76 
-0.0506885 0.0413226 0.201432 19 26 77 
-0.0501779 0.0423259 0.201495 19 27 79 
-0.0494415 0.0432312 0.201432 18 27 80 
-0.0484928 0.0442793 0.201551 16 30 82 
-0.0474456 0.0445224 0.201245 13 28 79 
-0.0464728 0.044688 0.201026 14 30 78 
-0.0457128 0.0454494 0.201276 28 33 74 
-0.0444658 0.0464384 0.201526 18 24 68 
-0.0434463 0.0472488 0.201651 16 21 69 
-0.0423004 0.0481374 0.201734 25 30 76 
-0.0404704 0.0485757 0.201213 111 124 162 
-0.0393108 0.0494702 0.201567 27 27 81 
-0.00623515 0.0497362 0.201526 122 135 173 
-0.038155 0.0502716 0.201651 35 31 91 
-0.00672309 0.050747 0.201776 126 137 174 
-0.0364574 0.0512007 0.201526 21 22 81 
-0.0344787 0.0521328 0.201476 13 21 76 
-0.0334245 0.0525324 0.201651 14 20 77 
-0.0315549 0.052934 0.201213 16 22 81 
-0.00937103 0.0526138 0.201151 23 24 86 
-0.00842051 0.0522595 0.201338 25 23 86 
-0.0304561 0.0534538 0.201451 14 22 81 
-0.0283348 0.0535908 0.201245 13 18 79 
-0.0173672 0.0539218 0.201401 19 20 78 
-0.0152022 0.0536083 0.201276 18 19 78 
-0.0134934 0.0532605 0.201338 18 19 79 
-0.012348 0.0531969 0.201401 18 19 79 
-0.0112304 0.0531506 0.201401 18 19 79 
-0.0294384 0.0542315 0.201901 13 21 77 
-0.0276226 0.0542185 0.201713 14 17 80 
-0.0265602 0.0544496 0.201682 17 20 78 
-0.0255411 0.0544549 0.201526 19 22 76 
-0.0244935 0.0544422 0.201432 19 22 76 
-0.0234168 0.0544114 0.201401 19 22 76 
-0.0223241 0.0543712 0.201401 18 21 76 
-0.0205356 0.0543581 0.201526 18 21 76 
-0.0184521 0.0542086 0.201463 19 21 77 
-0.0157677 0.0542503 0.201901 20 22 77 
-0.0553398 0.0363184 0.202526 21 26 71 
-0.0544543 0.0374683 0.202401 22 23 71 
-0.053449 0.0384929 0.202369 21 24 71 
-0.0524232 0.0394949 0.202401 23 28 75 
-0.00110358 0.0403013 0.202776 12 21 83 
-0.0512559 0.0413647 0.202692 19 25 74 
-0.0503818 0.0425214 0.202526 21 27 75 
-0.0495081 0.0436762 0.202359 18 29 78 
-0.048354 0.0455641 0.202588 11 27 77 
-0.0467067 0.0459437 0.202026 16 30 79 
-0.0454156 0.0466922 0.202276 39 46 87 
-0.0442337 0.047551 0.202463 16 21 67 
-0.043397 0.0482485 0.202651 15 21 66 
-0.0422778 0.0491802 0.202901 16 18 73 
-0.0413657 0.0493988 0.202494 22 23 78 
-0.00521228 0.049446 0.202401 122 135 173 
-0.0404933 0.0501995 0.202776 21 23 78 
-0.0395047 0.0504812 0.202588 18 20 76 
-0.0383241 0.0513549 0.202734 16 21 78 
-0.00721016 0.0517578 0.202026 27 23 87 
-0.0370882 0.0521698 0.202776 18 21 80 
-0.0354028 0.0525043 0.202307 12 19 74 
-0.00750476 0.0526606 0.202651 18 19 79 
-0.0344391 0.0531235 0.202776 14 20 75 
-0.0332722 0.0533152 0.202567 15 21 75 
-0.0315279 0.0537497 0.202026 13 21 81 
-0.0132163 0.0534587 0.202526 19 20 78 
-0.0116317 0.0532951 0.202901 16 19 78 
-0.0104753 0.0533798 0.202401 16 19 78 
-0.00947561 0.0534045 0.202151 16 19 78 
-0.00840832 0.0532441 0.202588 16 19 78 
-0.032269 0.0540591 0.202901 10 20 79 
-0.0304873 0.0544692 0.202442 10 20 78 
-0.0285136 0.0546362 0.202213 14 19 76 
-0.0212502 0.0549485 0.202026 19 22 79 
-0.0193247 0.054877 0.202026 19 22 79 
-0.0173334 0.054769 0.202151 19 22 79 
-0.0145758 0.0544004 0.202484 18 22 76 
-0.0293543 0.0550201 0.202838 14 21 78 
-0.0273929 0.0551986 0.202567 13 20 80 
-0.0254712 0.0552626 0.202401 15 20 77 
-0.0244618 0.0554772 0.202442 16 20 77 
-0.0224109 0.0555129 0.202426 15 20 77 
-0.0203353 0.0554921 0.202484 15 20 77 
-0.0185723 0.0555036 0.202526 15 20 77 
-0.0164259 0.0553249 0.202567 14 19 76 
-0.0192585 0.0562177 0.202901 12 17 74 
-0.0557227 0.0315329 0.203651 35 32 71 
-0.05623 0.0330502 0.203901 32 31 74 
-0.0558396 0.0354826 0.203713 23 28 73 
-0.0547891 0.0372285 0.203901 22 27 72 
-0.0545279 0.0385264 0.203151 23 26 72 
-0.053549 0.0395852 0.203026 22 27 72 
-0.0526637 0.0407225 0.203463 21 28 75 
3.50177e-05 0.0407017 0.203901 13 21 81 
-0.0511967 0.04214 0.203526 19 29 78 
-0.050344 0.0429853 0.203526 22 27 74 
-0.0494319 0.0443619 0.203213 15 28 77 
-0.0488413 0.0455521 0.203526 11 27 77 
-0.0476354 0.0466342 0.203276 15 28 78 
-0.0465474 0.0473356 0.203432 14 25 71 
-0.0453376 0.0481769 0.203692 33 37 80 
-0.0443756 0.0484394 0.203526 20 25 70 
-0.0433374 0.0492479 0.203682 12 20 67 
-0.0420038 0.0502225 0.203776 14 17 72 
-0.0409604 0.0509722 0.203776 17 16 70 
-0.039294 0.0514423 0.203401 14 20 75 
-0.00606371 0.0514038 0.203151 27 23 87 
-0.038487 0.0521877 0.203626 12 22 76 
-0.00695413 0.0528692 0.203776 16 19 78 
-0.037324 0.052978 0.203651 12 17 76 
-0.0355549 0.0535747 0.203551 11 19 74 
-0.0101574 0.0535658 0.203651 20 22 77 
-0.0340468 0.0543711 0.203901 12 21 74 
-0.031603 0.054719 0.203276 12 20 80 
-0.0140377 0.0548746 0.203276 15 20 77 
-0.0126527 0.0541626 0.203776 18 22 76 
-0.00864116 0.0539685 0.203901 18 22 76 
-0.0304438 0.0553974 0.203526 9 19 77 
-0.0284806 0.0556913 0.203484 12 19 75 
-0.0264857 0.0558521 0.203276 14 21 79 
-0.0152166 0.0557256 0.203213 13 18 75 
-0.0273294 0.0562419 0.203901 12 21 78 
-0.0253033 0.0562701 0.203526 15 20 77 
-0.0234764 0.0565171 0.203338 14 18 75 
-0.0224332 0.0565127 0.203213 14 18 75 
-0.0205341 0.0564616 0.203151 13 18 75 
-0.0182752 0.0566106 0.203276 14 19 76 
-0.0173033 0.0562572 0.203151 12 17 74 
-0.016429 0.0565789 0.203551 14 19 76 
-0.0214402 0.0571524 0.203651 16 19 76 
-0.01923 0.0570748 0.203651 16 19 76 
-0.0547551 0.029439 0.2049 39 29 68 
-0.0569986 0.0314547 0.204713 56 47 82 
-0.0560482 0.0346098 0.204713 27 28 72 
-0.055582 0.0359402 0.20465 26 30 73 
-0.0547124 0.0394281 0.2044 18 26 71 
0.000950128 0.0394122 0.2044 11 20 82 
-0.0541404 0.0403805 0.20465 18 25 71 
-0.0533024 0.0413323 0.204609 17 28 76 
-0.0522638 0.0423381 0.20465 19 29 78 
-0.0511837 0.0433028 0.204817 15 24 75 
-0.0501824 0.0443483 0.204734 17 24 74 
-0.0493443 0.045552 0.204432 13 26 77 
-0.0484587 0.0467064 0.204275 13 28 79 
-0.0475659 0.0477316 0.2044 11 25 74 
-0.0464005 0.0486416 0.204475 16 25 71 
-0.0453974 0.0494142 0.204682 21 32 73 
-0.044422 0.0495873 0.204432 28 43 83 
-0.0435658 0.0505354 0.204682 12 22 70 
-0.0424034 0.0514325 0.204775 15 21 71 
-0.0411806 0.0522668 0.204775 18 21 71 
-0.0394609 0.0525873 0.204369 10 18 74 
-0.0383025 0.0535116 0.204682 13 18 77 
-0.0363354 0.053838 0.204213 10 18 74 
-0.0113209 0.0534818 0.204151 20 22 77 
-0.00718877 0.0537461 0.204525 18 22 76 
-0.037191 0.0542198 0.204838 11 19 75 
-0.0354311 0.0545101 0.204525 10 18 73 
-0.032933 0.0548244 0.204026 11 19 75 
-0.0102831 0.0546366 0.20465 16 20 77 
-0.0345232 0.0551837 0.204838 12 20 77 
-0.0334852 0.0554376 0.204744 9 17 75 
-0.0315965 0.055587 0.204275 14 20 78 
-0.0130375 0.0556348 0.204276 15 20 77 
-0.0115726 0.055475 0.204682 14 19 76 
-0.0304026 0.0563347 0.204609 10 23 79 
-0.0285061 0.0564222 0.204369 11 20 76 
-0.0153811 0.0568101 0.204151 17 20 77 
-0.0143819 0.0565659 0.204275 16 19 76 
-0.0275159 0.0570565 0.204838 11 18 76 
-0.0264997 0.0570708 0.20465 12 20 76 
-0.025398 0.0572891 0.204682 15 19 77 
-0.0243665 0.0572942 0.204525 16 20 78 
-0.0224156 0.0577302 0.204619 18 22 81 
-0.0213804 0.0577341 0.204463 18 22 81 
-0.0194132 0.0576509 0.204525 17 21 80 
-0.0174674 0.0575825 0.204525 17 21 80 
-0.0164631 0.0575932 0.204692 17 21 80 
-0.0552487 0.0304332 0.20515 35 32 69 
-0.0567288 0.032393 0.205775 57 41 80 
-0.0563737 0.0333593 0.205275 35 28 71 
-0.0563693 0.0353973 0.205525 27 28 70 
-0.0563291 0.0363717 0.205775 27 31 72 
-0.0552625 0.0374218 0.20555 20 26 69 
-0.0551465 0.0385387 0.205525 22 29 72 
-0.0548845 0.0398113 0.20565 22 30 70 
-0.0537403 0.041577 0.205525 18 28 73 
-0.0525452 0.043409 0.20549 15 26 73 
-0.0522983 0.0444019 0.2059 15 30 76 
-0.0505165 0.045396 0.205575 14 28 77 
-0.0494924 0.0464243 0.20555 16 27 77 
-0.0486212 0.0473985 0.205484 15 29 78 
-0.047643 0.0484679 0.205317 13 28 75 
-0.04658 0.0494606 0.2054 18 30 75 
-0.00286245 0.0494432 0.2059 126 137 174 
-0.0461251 0.0503015 0.205775 20 31 73 
-0.0444781 0.0506918 0.20515 31 43 84 
-0.00351152 0.0502969 0.205838 54 54 108 
-0.0453466 0.0510654 0.205775 20 28 70 
-0.0434947 0.0515117 0.205234 16 32 76 
-0.00514606 0.0519276 0.205025 23 24 86 
-0.0424397 0.052426 0.205475 13 22 72 
-0.0416562 0.0530544 0.205775 12 20 72 
-0.0405259 0.0533053 0.2055 10 18 74 
-0.00534274 0.0533121 0.2059 18 22 76 
-0.0395352 0.0540402 0.205775 12 20 78 
-0.0385344 0.0543226 0.205588 13 20 79 
-0.00755156 0.0546968 0.205025 15 20 77 
-0.00642298 0.054388 0.205359 16 20 77 
-0.0374082 0.0550256 0.205775 14 18 75 
-0.0363939 0.0552984 0.205619 10 17 71 
-0.0354679 0.0553764 0.205213 11 20 73 
-0.0103748 0.0558405 0.20515 14 19 76 
-0.00844683 0.0554001 0.205192 14 19 76 
-0.0351899 0.0561828 0.205775 11 19 71 
-0.033296 0.0563333 0.205307 13 20 76 
-0.0314639 0.0565784 0.20515 15 18 75 
-0.012073 0.0566858 0.205213 16 19 76 
-0.00926661 0.0561882 0.205713 17 20 77 
-0.0326159 0.0569951 0.205713 18 23 79 
-0.0304813 0.0572157 0.205619 12 20 76 
-0.0293874 0.0573692 0.2055 9 19 75 
-0.0283987 0.0575419 0.205525 12 20 78 
-0.0235703 0.0578993 0.20515 19 24 83 
-0.0144459 0.057614 0.205025 17 22 81 
-0.0133273 0.0575043 0.205307 17 22 81 
-0.0262958 0.0583281 0.2059 14 22 80 
-0.0244742 0.0583313 0.20565 13 21 79 
-0.0222859 0.058531 0.205619 14 23 80 
-0.0205183 0.0585525 0.20565 14 23 79 
-0.0183422 0.0581111 0.205713 15 23 81 
-0.0172536 0.0580887 0.20565 15 23 81 
-0.0156319 0.0580624 0.205525 17 23 82 
-0.0552528 0.0297891 0.2069 50 39 74 
-0.0566251 0.0335452 0.206275 45 34 74 
-0.05666 0.0346132 0.206275 40 33 76 
-0.0564044 0.0374362 0.206556 27 30 71 
-0.0561435 0.0384594 0.20665 23 28 69 
-0.0554964 0.0394694 0.206425 22 28 69 
-0.0543309 0.0412864 0.206484 20 28 70 
-0.0534286 0.0434693 0.206463 15 28 72 
-0.0523209 0.0451885 0.206775 11 30 76 
-0.0513614 0.0455195 0.206463 13 28 75 
-0.0502145 0.0464335 0.206525 20 30 79 
-0.0492619 0.047284 0.206525 21 32 78 
-0.048245 0.048326 0.206463 20 35 81 
-0.0471932 0.0495933 0.206525 18 30 77 
-0.0448941 0.0519278 0.2064 13 24 65 
-0.0435974 0.0526956 0.206338 34 52 89 
-0.0423669 0.0534141 0.206463 24 35 83 
-0.0406995 0.0539409 0.206275 11 19 75 
-0.00536896 0.0544924 0.206525 15 20 77 
-0.0383775 0.0553766 0.20655 13 21 79 
-0.0064688 0.0555615 0.206713 14 18 75 
-0.0373022 0.056306 0.2069 14 20 74 
-0.0363474 0.0563667 0.206556 12 19 74 
-0.00918095 0.0567832 0.206525 16 20 78 
-0.00829473 0.0563454 0.206359 16 19 76 
-0.0351602 0.057296 0.2069 12 22 77 
-0.0334573 0.0576348 0.2064 13 19 74 
-0.0313329 0.0578651 0.206275 14 18 75 
-0.0114064 0.0575066 0.206088 18 23 82 
-0.0105136 0.057445 0.206567 18 23 82 
-0.0322668 0.0583102 0.206713 16 21 79 
-0.0306212 0.0585169 0.206744 16 20 77 
-0.0295886 0.0585242 0.206588 11 19 76 
-0.0285295 0.0585149 0.206494 12 21 79 
-0.0275215 0.0585376 0.206275 10 19 77 
-0.0253534 0.0587481 0.206213 12 22 79 
-0.0235005 0.0587347 0.206025 17 27 82 
-0.0173949 0.0586521 0.206619 15 25 80 
-0.0154875 0.0586167 0.206494 15 25 80 
-0.0144053 0.0586015 0.2064 15 25 80 
-0.0124393 0.0584028 0.206567 15 25 80 
-0.0262084 0.0591501 0.206838 11 22 81 
-0.0224769 0.0593722 0.206525 22 37 86 
-0.0214349 0.0593762 0.206369 22 37 86 
-0.020364 0.0593637 0.206275 22 37 86 
-0.0185197 0.0592125 0.20665 22 36 86 
-0.0195803 0.0599969 0.206838 24 40 88 
-0.0568668 0.0355205 0.207525 36 36 74 
-0.0569738 0.0366776 0.207275 34 30 72 
-0.0568967 0.0376153 0.20765 35 32 71 
-0.0561827 0.0392339 0.207525 24 29 70 
-0.0553851 0.0404996 0.20765 21 28 68 
-0.0545753 0.0415033 0.207484 20 28 70 
-0.0538546 0.042845 0.20765 19 30 71 
-0.0532872 0.0443456 0.207317 11 27 72 
-0.0514847 0.0461582 0.207567 12 26 73 
-0.0504185 0.0471608 0.20765 22 31 79 
-0.0493503 0.0481636 0.207733 23 31 78 
-0.0483078 0.0491911 0.207733 20 32 79 
-0.0473196 0.0502669 0.207567 15 25 76 
-0.0464028 0.0514133 0.207463 14 24 77 
-0.00407478 0.0518561 0.20715 16 19 78 
-0.0453469 0.0524294 0.207494 12 24 73 
-0.00393044 0.0528309 0.207525 20 22 77 
-0.0442463 0.0534104 0.20765 11 23 67 
-0.0431903 0.0541714 0.20765 14 24 64 
-0.041445 0.0546169 0.207275 13 23 69 
-0.0404584 0.0547861 0.207025 13 19 73 
-0.00417181 0.0540154 0.20715 15 20 77 
-0.0395674 0.0554769 0.207306 12 21 74 
-0.0383868 0.0564085 0.20765 12 20 76 
-0.0072834 0.0564789 0.207463 16 19 77 
-0.0372525 0.0571196 0.207838 13 19 77 
-0.00953517 0.0577296 0.207442 16 23 81 
-0.00836899 0.0572784 0.20765 19 24 83 
-0.0353521 0.0581054 0.2079 9 19 76 
-0.0343847 0.0582872 0.207588 13 22 78 
-0.0111644 0.0585415 0.207275 17 27 82 
-0.0331965 0.0590997 0.2079 15 20 77 
-0.0314102 0.0593883 0.207588 14 19 77 
-0.0303881 0.0594039 0.2074 19 23 79 
-0.0293272 0.0593952 0.207306 14 20 81 
-0.0276445 0.0595861 0.2074 13 22 81 
-0.0244864 0.0595795 0.207025 13 24 76 
-0.0223973 0.0599534 0.2074 20 31 83 
-0.0174115 0.0595565 0.207275 26 42 90 
-0.0153538 0.0594427 0.207463 26 42 90 
-0.0134197 0.0593987 0.207369 20 35 84 
-0.0124032 0.0594151 0.207525 21 36 85 
-0.0286086 0.0600533 0.207775 15 28 84 
-0.0264074 0.0602524 0.207775 29 43 93 
-0.0253129 0.0602268 0.207744 32 47 97 
