ply
format ascii 1.0
comment Created by CloudCompare v2.11 alpha (Anoia)
comment Created 20/2/13 下午11:10
obj_info Generated by CloudCompare!
element vertex 1193
property float x
property float y
property float z
property uchar red
property uchar green
property uchar blue
end_header
0.156354 -0.0121542 0.297564 18 156 147 
0.155974 -0.0333357 0.275282 5 139 131 
0.156257 -0.0320349 0.276561 10 146 143 
0.15639 -0.0312435 0.277241 21 147 144 
0.156356 -0.0285823 0.280391 29 145 139 
0.156351 -0.0272448 0.281747 22 147 138 
0.155428 -0.0337334 0.273407 2 116 91 
0.155464 -0.0105916 0.296398 25 144 129 
0.15556 -0.0326799 0.273197 1 111 90 
0.155307 -0.010655 0.294703 11 143 126 
0.154577 -0.0300878 0.272186 3 109 80 
0.154979 -0.0284792 0.273033 6 112 85 
0.154224 -0.0290175 0.272267 3 109 78 
0.154015 -0.0097855 0.290988 11 130 103 
0.153689 -0.0268379 0.273182 3 111 85 
0.153693 -0.00948951 0.289381 19 128 102 
0.153562 -0.0253382 0.273078 2 113 86 
0.15335 -0.00996517 0.287448 16 127 106 
0.153213 -0.00958092 0.288381 13 127 104 
0.153084 -0.023908 0.272909 2 114 83 
0.153538 -0.0107506 0.285208 4 132 109 
0.153065 -0.0102267 0.286119 18 127 108 
0.152802 -0.0210345 0.27431 0 118 92 
0.153087 -0.0112357 0.283365 6 127 104 
0.152509 -0.0190516 0.275113 2 119 95 
0.152713 -0.0118262 0.281927 2 126 100 
0.152234 -0.0160467 0.276218 0 121 94 
0.152397 -0.0152524 0.276887 0 122 93 
0.152393 -0.0144826 0.277662 6 122 94 
0.152193 -0.0133526 0.278954 0 124 98 
0.152248 -0.0127569 0.279936 6 126 102 
0.155731 -0.0267914 0.286276 25 147 137 
0.156163 -0.0253545 0.287349 23 149 138 
0.155726 -0.0244733 0.288638 30 150 136 
0.155648 -0.0159316 0.296544 32 149 125 
0.155714 -0.0151214 0.298213 43 147 130 
0.155735 -0.0117824 0.30118 32 153 149 
0.155413 -0.0345366 0.276967 26 147 144 
0.155514 -0.0325998 0.278829 23 148 142 
0.155499 -0.0283814 0.283105 20 147 131 
0.155712 -0.0269904 0.284324 25 147 134 
0.155876 -0.023095 0.28902 28 152 138 
0.155841 -0.0221372 0.289584 32 149 136 
0.155806 -0.0204019 0.29094 44 151 141 
0.15564 -0.0192641 0.292249 35 150 137 
0.155421 -0.0185213 0.293203 34 151 136 
0.155365 -0.0171638 0.294641 31 155 142 
0.155517 -0.0350767 0.275457 6 139 133 
0.155989 -0.0305752 0.279575 28 147 140 
0.155926 -0.0284825 0.281744 21 146 140 
0.155104 -0.0352256 0.274217 1 120 103 
0.153959 -0.0104446 0.295634 15 141 120 
0.154473 -0.0329836 0.272385 9 106 77 
0.15326 -0.00983364 0.293321 19 134 106 
0.153384 -0.0280461 0.272509 4 110 81 
0.152698 -0.00921798 0.290475 23 130 104 
0.152659 -0.00925666 0.289162 19 133 105 
0.152237 -0.00962742 0.286818 18 128 106 
0.152105 -0.022852 0.273119 5 116 86 
0.152306 -0.0101682 0.285067 6 127 104 
0.151544 -0.0207557 0.273746 2 117 88 
0.151762 -0.019949 0.274381 0 116 89 
0.151855 -0.0110442 0.282825 8 127 100 
0.151053 -0.0185381 0.275075 1 119 90 
0.15132 -0.0169637 0.275592 3 121 94 
0.15135 -0.0121191 0.280429 9 124 100 
0.15097 -0.0151032 0.276452 0 120 97 
0.151022 -0.0143218 0.277195 1 121 95 
0.151018 -0.0135477 0.277974 4 122 94 
0.151033 -0.0128966 0.278757 0 124 95 
0.155701 -0.0127025 0.303425 51 155 149 
0.155035 -0.0269312 0.287648 19 153 141 
0.155195 -0.0255416 0.288918 26 150 139 
0.154869 -0.0296744 0.284125 27 150 133 
0.1548 -0.0283355 0.284657 26 150 134 
0.155289 -0.023781 0.289735 32 152 136 
0.155229 -0.0228879 0.290402 33 151 137 
0.155198 -0.0214679 0.29173 45 149 138 
0.155196 -0.0206887 0.292527 35 152 141 
0.15513 -0.0199214 0.293221 29 150 138 
0.154725 -0.0186238 0.294612 32 152 138 
0.154669 -0.0172601 0.296058 37 153 132 
0.154822 -0.0364018 0.275615 7 136 132 
0.154959 -0.0357985 0.276538 13 144 141 
0.155149 -0.0346073 0.278008 30 146 140 
0.155341 -0.0272579 0.285266 29 149 135 
0.154627 -0.0116462 0.300361 35 156 150 
0.154483 -0.0366619 0.274338 1 121 100 
0.154295 -0.0110698 0.299601 13 147 140 
0.154327 -0.035916 0.273477 4 108 90 
0.153751 -0.03469 0.272593 7 98 74 
0.153052 -0.0321463 0.272268 7 102 73 
0.15203 -0.00963506 0.292793 13 132 105 
0.151764 -0.0291486 0.271595 0 108 82 
0.15223 -0.0275161 0.272273 2 108 82 
0.151647 -0.0264055 0.272371 2 109 83 
0.15152 -0.00881363 0.290103 24 131 108 
0.15111 -0.0250519 0.272501 0 111 82 
0.151476 -0.00907329 0.287703 10 127 103 
0.151294 -0.00881714 0.288686 11 129 105 
0.151235 -0.023685 0.272768 0 114 84 
0.151161 -0.00914431 0.286584 13 127 104 
0.150972 -0.0223929 0.272989 2 113 82 
0.150788 -0.00983126 0.28403 2 128 107 
0.150753 -0.00936411 0.285103 7 126 104 
0.150507 -0.020366 0.273675 0 115 85 
0.15067 -0.0195663 0.274348 0 117 91 
0.150338 -0.0109054 0.281584 7 123 102 
0.150253 -0.0101236 0.282865 8 125 100 
0.149927 -0.0175779 0.275212 2 121 94 
0.150303 -0.0157891 0.275857 0 122 95 
0.150395 -0.0120867 0.279498 2 127 98 
0.149662 -0.0114204 0.279878 0 124 102 
0.154341 -0.0274597 0.288631 21 147 134 
0.154622 -0.026038 0.290721 30 151 137 
0.154675 -0.0252474 0.291479 48 149 137 
0.154575 -0.0242939 0.291945 39 152 137 
0.154333 -0.0229723 0.293213 35 150 138 
0.154655 -0.0128667 0.303299 44 155 151 
0.154204 -0.0381229 0.277079 13 147 141 
0.154556 -0.0307112 0.284244 30 150 134 
0.154719 -0.0264105 0.289357 20 150 142 
0.154819 -0.0246412 0.290622 42 152 138 
0.154701 -0.0229113 0.292045 32 150 136 
0.154699 -0.0217395 0.293243 42 151 141 
0.15448 -0.0209951 0.294201 25 151 142 
0.154154 -0.0204634 0.29504 30 152 140 
0.154193 -0.018699 0.29591 30 153 133 
0.154029 -0.01715 0.297645 37 157 125 
0.154518 -0.0162856 0.298092 27 151 121 
0.154259 -0.015321 0.30022 31 137 119 
0.154477 -0.0141013 0.301279 33 153 139 
0.153862 -0.039147 0.274589 1 113 97 
0.154249 -0.0382919 0.275985 12 139 134 
0.154406 -0.0369079 0.277236 18 148 143 
0.154511 -0.0361133 0.277942 15 148 141 
0.154429 -0.0284132 0.285797 30 150 135 
0.154012 -0.0381371 0.274589 1 119 104 
0.154367 -0.0374776 0.275376 2 130 119 
0.154028 -0.0106967 0.300668 57 144 141 
0.153543 -0.0383006 0.273375 9 103 77 
0.153241 -0.0375244 0.27281 13 101 74 
0.153675 -0.0099937 0.299905 89 141 139 
0.153054 -0.0362074 0.272544 4 97 73 
0.152747 -0.0347275 0.272401 8 97 72 
0.152351 -0.0334624 0.27241 11 102 75 
0.151891 -0.0322107 0.272315 9 101 76 
0.152067 -0.0310119 0.272068 5 104 77 
0.151109 -0.00865283 0.291039 23 131 105 
0.150731 -0.00867289 0.292205 17 126 109 
0.150806 -0.0281909 0.271327 0 108 81 
0.150315 -0.0267485 0.271301 3 111 81 
0.150643 -0.0259129 0.271873 2 109 85 
0.150269 -0.00817047 0.289296 17 128 107 
0.150024 -0.0244921 0.272214 1 111 85 
0.15035 -0.00846407 0.287484 7 124 100 
0.149758 -0.0225202 0.272752 0 114 83 
0.149893 -0.00856324 0.286013 11 124 104 
0.149223 -0.00784997 0.287261 10 124 101 
0.149134 -0.0211908 0.272788 1 113 86 
0.149523 -0.0195758 0.273955 0 117 88 
0.149431 -0.018626 0.274549 0 118 90 
0.149381 -0.00886483 0.284383 6 128 108 
0.148765 -0.0197146 0.273124 0 116 87 
0.149098 -0.0101207 0.281619 10 123 103 
0.149136 -0.00964402 0.282641 7 125 101 
0.148741 -0.0110476 0.279534 2 124 100 
0.148562 -0.0104131 0.28045 1 125 101 
0.148332 -0.0151538 0.275024 0 120 93 
0.148514 -0.0119326 0.277852 6 123 97 
0.147867 -0.0130948 0.276156 0 122 95 
0.147974 -0.0122984 0.276871 2 122 94 
0.154041 -0.0273238 0.290841 27 151 142 
0.154157 -0.0263216 0.29236 35 153 136 
0.154417 -0.0252939 0.292568 45 150 137 
0.153982 -0.0245942 0.293681 38 151 136 
0.15392 -0.0322127 0.284189 30 145 133 
0.153866 -0.0277513 0.289664 21 150 137 
0.153907 -0.0227193 0.29446 40 153 142 
0.153897 -0.0216781 0.294932 40 151 140 
0.15339 -0.0162445 0.300056 28 151 118 
0.15335 -0.0416174 0.274336 8 106 88 
0.153827 -0.0199292 0.295881 38 154 135 
0.1535 -0.019393 0.296725 37 155 133 
0.153628 -0.0403675 0.274014 4 103 84 
0.152824 -0.0405581 0.273213 7 97 77 
0.152704 -0.0391472 0.272677 10 94 73 
0.15232 -0.037156 0.272228 7 98 71 
0.151776 -0.0359218 0.272181 4 95 71 
0.151361 -0.0346564 0.2722 15 97 70 
0.150971 -0.0331899 0.272252 10 99 73 
0.150662 -0.00977778 0.294672 19 133 105 
0.150875 -0.0316577 0.272126 6 102 80 
0.150123 -0.0298777 0.271347 0 103 80 
0.149461 -0.00788612 0.29184 26 125 109 
0.14959 -0.0276659 0.270824 2 108 77 
0.149388 -0.00774553 0.290287 23 127 107 
0.149311 -0.026176 0.270814 0 111 82 
0.149433 -0.0251862 0.271419 2 110 84 
0.149094 -0.00762924 0.288891 25 126 105 
0.148698 -0.0243608 0.271536 0 111 85 
0.148971 -0.0235349 0.272145 0 111 85 
0.148507 -0.0220768 0.272249 5 113 91 
0.148486 -0.00778246 0.286172 14 125 104 
0.148182 -0.020593 0.272269 0 114 88 
0.148422 -0.00882436 0.283443 4 125 102 
0.147992 -0.00794337 0.284949 7 125 104 
0.148081 -0.00969604 0.281109 9 125 104 
0.14733 -0.0164823 0.273747 9 119 91 
0.147649 -0.0141019 0.275314 0 121 93 
0.147628 -0.0103818 0.279051 7 126 101 
0.147233 -0.00883142 0.281763 5 125 105 
0.147016 -0.012254 0.276356 7 123 93 
0.147294 -0.0116207 0.277208 9 124 96 
0.147178 -0.01085 0.278066 10 124 100 
0.153726 -0.0468427 0.27499 38 100 87 
0.153407 -0.0290197 0.290598 29 149 135 
0.153455 -0.0252806 0.29437 40 146 132 
0.153304 -0.0455536 0.273987 22 98 76 
0.153585 -0.0383143 0.280116 25 146 138 
0.15361 -0.0289762 0.289552 28 150 133 
0.153493 -0.0240977 0.294636 35 149 140 
0.153221 -0.0235574 0.295437 37 150 139 
0.153193 -0.0225816 0.295856 41 153 136 
0.153448 -0.033685 0.284022 23 147 137 
0.153353 -0.0209861 0.296133 36 154 136 
0.152917 -0.0200726 0.297464 48 159 130 
0.152955 -0.0175025 0.299156 27 157 120 
0.15259 -0.0159514 0.301993 26 130 113 
0.150168 -0.0341463 0.271825 7 97 73 
0.149786 -0.0326723 0.271872 6 100 71 
0.149623 -0.0311496 0.271643 0 102 78 
0.148895 -0.029164 0.270896 4 106 76 
0.148178 -0.0279502 0.27052 7 106 79 
0.148443 -0.00725207 0.291543 35 127 110 
0.148172 -0.00714657 0.289673 26 127 106 
0.148255 -0.0250279 0.27079 0 111 83 
0.147452 -0.0253779 0.269923 0 109 83 
0.147821 -0.0237539 0.271111 0 111 86 
0.14742 -0.00718776 0.287021 16 124 103 
0.147027 -0.0231289 0.270633 0 111 86 
0.147189 -0.0223207 0.271313 0 111 86 
0.147267 -0.00718389 0.28555 14 127 102 
0.146868 -0.0212169 0.271374 0 113 89 
0.147065 -0.0078379 0.28375 8 126 104 
0.146389 -0.00671851 0.285391 14 128 100 
0.146772 -0.0171609 0.272923 4 117 92 
0.146442 -0.00821066 0.28241 10 127 106 
0.146329 -0.00714814 0.284139 22 125 101 
0.145923 -0.0163217 0.273545 12 118 93 
0.146306 -0.0148928 0.274682 7 118 91 
0.146325 -0.0139159 0.275214 6 120 90 
0.146164 -0.0107981 0.278022 17 123 98 
0.146499 -0.00975044 0.279677 8 125 101 
0.146104 -0.00920393 0.280521 12 125 100 
0.145665 -0.0124567 0.275881 33 116 92 
0.145548 -0.0116833 0.27674 37 117 90 
0.153145 -0.0472274 0.276042 28 111 98 
0.152681 -0.0461589 0.275744 25 101 79 
0.152442 -0.0262638 0.295209 44 153 136 
0.152611 -0.0354545 0.284795 25 149 138 
0.152505 -0.031177 0.29014 23 152 133 
0.15272 -0.0303444 0.290789 28 150 133 
0.152881 -0.0295241 0.291477 30 150 136 
0.153096 -0.0286929 0.292126 28 149 138 
0.153203 -0.0278847 0.292852 30 150 139 
0.152768 -0.0267914 0.294369 42 153 137 
0.152913 -0.0249911 0.295164 34 152 134 
0.152538 -0.0337073 0.285728 25 149 140 
0.152227 -0.0201787 0.298895 38 156 123 
0.151938 -0.0176486 0.300839 29 157 122 
0.1519 -0.0160384 0.303449 25 124 99 
0.152107 -0.0452675 0.273131 36 92 71 
0.152313 -0.0430809 0.275136 12 101 80 
0.152373 -0.0187744 0.299289 33 159 125 
0.15144 -0.0428908 0.273881 14 90 64 
0.149496 -0.00968347 0.297085 35 132 111 
0.149337 -0.0347198 0.271073 4 96 73 
0.14914 -0.00917252 0.296115 30 132 111 
0.14907 -0.0335099 0.271193 3 99 73 
0.148483 -0.00849169 0.295716 35 128 114 
0.148793 -0.0324191 0.27129 1 99 72 
0.148392 -0.0310211 0.27104 1 101 73 
0.147964 -0.00743067 0.294253 54 129 114 
0.14792 -0.00669529 0.292969 59 130 119 
0.147008 -0.028186 0.270351 7 106 79 
0.147169 -0.00645389 0.291168 58 128 115 
0.146907 -0.00692155 0.289584 23 127 107 
0.146372 -0.00668188 0.286745 16 126 102 
0.146117 -0.0221303 0.27061 0 112 84 
0.145287 -0.0140668 0.275413 10 119 86 
0.145485 -0.00969405 0.279634 32 123 99 
0.145034 -0.00915124 0.280515 44 120 100 
0.144981 -0.0107655 0.278079 37 117 94 
0.144642 -0.0102119 0.278885 50 117 91 
0.151973 -0.0151526 0.308003 33 156 141 
0.151915 -0.0336669 0.288153 33 150 135 
0.151764 -0.0319345 0.290967 23 151 137 
0.152247 -0.0296599 0.292837 28 151 139 
0.152245 -0.0288706 0.293644 26 149 136 
0.151974 -0.0283341 0.294443 19 150 135 
0.152009 -0.0257547 0.296131 35 153 133 
0.151599 -0.0151036 0.306849 32 154 140 
0.151926 -0.0451813 0.276071 19 104 86 
0.152164 -0.0425961 0.2789 25 146 142 
0.152063 -0.0336271 0.287148 32 150 137 
0.151827 -0.0234124 0.297778 41 154 134 
0.151646 -0.020266 0.300253 36 156 123 
0.151321 -0.0197212 0.30111 39 157 126 
0.151321 -0.0165111 0.304414 21 124 93 
0.151918 -0.0146121 0.305827 27 152 138 
0.151358 -0.0185269 0.301383 30 158 121 
0.151303 -0.0171325 0.302867 33 149 118 
0.151709 -0.0440199 0.274592 15 95 72 
0.151153 -0.0441421 0.27333 29 90 68 
0.150395 -0.043159 0.273652 21 89 68 
0.150191 -0.0398419 0.273147 17 89 70 
0.149147 -0.0384922 0.270976 11 90 70 
0.148356 -0.0365065 0.270108 10 91 70 
0.147922 -0.00776784 0.296321 47 130 117 
0.147852 -0.0323089 0.270776 3 99 73 
0.14732 -0.030465 0.270434 1 103 77 
0.144886 -0.00604729 0.28809 34 124 102 
0.144425 -0.00654941 0.286188 40 124 102 
0.145269 -0.00603516 0.286935 21 124 98 
0.144612 -0.0206405 0.271088 15 109 84 
0.144371 -0.0189179 0.272123 19 109 87 
0.14413 -0.0171919 0.273162 23 112 90 
0.144293 -0.016378 0.273852 18 114 90 
0.144397 -0.0151778 0.27497 18 117 90 
0.143962 -0.00909775 0.280505 61 105 92 
0.143879 -0.0138797 0.27579 30 115 86 
0.144142 -0.0120785 0.27653 80 101 79 
0.14391 -0.0109165 0.277862 78 108 82 
0.152242 -0.0475145 0.277501 33 116 103 
0.151656 -0.0374803 0.286655 26 149 138 
0.151295 -0.0326358 0.291606 20 151 139 
0.151292 -0.0312513 0.293019 29 148 141 
0.151235 -0.0290818 0.295287 22 151 136 
0.151215 -0.0267017 0.296817 43 151 135 
0.150889 -0.0261682 0.297664 29 155 132 
0.151663 -0.0349114 0.288035 29 148 141 
0.15154 -0.0276302 0.295565 38 156 138 
0.151033 -0.024749 0.298061 32 153 139 
0.151176 -0.0213354 0.300507 35 158 127 
0.150851 -0.0203895 0.301779 40 157 125 
0.15058 -0.0196314 0.302808 37 155 122 
0.150525 -0.0184322 0.304092 32 152 121 
0.150688 -0.0176 0.3048 32 139 107 
0.150984 -0.0168095 0.305654 24 134 103 
0.151285 -0.0221158 0.299606 31 158 128 
0.150832 -0.0183969 0.302919 32 155 120 
0.150272 -0.0445637 0.272802 30 88 67 
0.149772 -0.0437073 0.27306 30 89 69 
0.147317 -0.0361525 0.26957 10 92 67 
0.14668 -0.00714921 0.296179 77 136 120 
0.14622 -0.034229 0.26888 8 96 74 
0.143837 -0.0222823 0.269751 49 95 72 
0.143488 -0.0208354 0.270878 45 104 80 
0.143538 -0.0200375 0.271634 37 107 83 
0.143154 -0.0145744 0.275637 32 114 86 
0.143793 -0.00789457 0.282702 71 127 108 
0.14269 -0.0132608 0.276426 78 103 82 
0.142962 -0.00951563 0.279386 93 106 74 
0.14266 -0.00846725 0.281235 84 94 78 
0.143234 -0.0114173 0.277 93 97 72 
0.151016 -0.0478964 0.279177 32 135 136 
0.150789 -0.0452143 0.282091 24 146 138 
0.150982 -0.0433746 0.282849 21 148 140 
0.150501 -0.032024 0.293893 33 149 141 
0.150661 -0.0311932 0.29459 29 149 141 
0.150822 -0.0303627 0.295288 26 150 139 
0.150658 -0.0292022 0.296627 16 151 131 
0.15055 -0.0284266 0.297523 30 151 135 
0.150386 -0.0272601 0.29887 34 155 135 
0.150204 -0.0258975 0.299506 37 154 139 
0.150204 -0.0204645 0.305094 21 157 129 
0.150313 -0.0192333 0.306264 12 135 103 
0.150259 -0.018432 0.307141 2 123 86 
0.150692 -0.0272016 0.297716 41 153 137 
0.150022 -0.0215159 0.303246 31 158 130 
0.150437 -0.023661 0.299727 35 154 129 
0.150219 -0.0224968 0.301123 28 157 126 
0.150327 -0.021674 0.301868 31 158 128 
0.150382 -0.0196518 0.303899 35 158 124 
0.148519 -0.0436367 0.273045 26 90 70 
0.145506 -0.0349801 0.268711 11 93 72 
0.145041 -0.0342888 0.268022 16 94 73 
0.14452 -0.0336092 0.267363 22 96 75 
0.145145 -0.0320958 0.267936 3 97 74 
0.144467 -0.0322373 0.267024 19 91 70 
0.144675 -0.0306208 0.268032 11 102 75 
0.144059 -0.0311414 0.267127 24 93 66 
0.143661 -0.0261055 0.268966 15 105 83 
0.143079 -0.0246435 0.26913 63 100 79 
0.143008 -0.0234768 0.269477 54 92 64 
0.142425 -0.0220099 0.269643 70 82 58 
0.142328 -0.0206441 0.27064 77 96 80 
0.142351 -0.0194461 0.272248 51 103 81 
0.142369 -0.0184556 0.272787 52 89 69 
0.142443 -0.0174578 0.273292 63 100 78 
0.142718 -0.0166226 0.27392 38 102 82 
0.14271 -0.0154314 0.275112 35 109 84 
0.142721 -0.00803558 0.282491 106 128 108 
0.141803 -0.0149762 0.275373 71 93 66 
0.141724 -0.0126059 0.276926 80 90 63 
0.141808 -0.00921032 0.279384 110 101 66 
0.141409 -0.00825018 0.280636 107 97 65 
0.150352 -0.0487262 0.280806 37 139 138 
0.150196 -0.0404576 0.288382 22 150 138 
0.149888 -0.0212944 0.307357 12 130 96 
0.150593 -0.049591 0.277872 115 128 127 
0.150452 -0.0465 0.281572 30 146 139 
0.149981 -0.0333391 0.293966 24 152 138 
0.149979 -0.0321429 0.295189 33 151 139 
0.150092 -0.031387 0.296165 29 149 138 
0.150203 -0.0306976 0.296922 35 150 135 
0.15027 -0.0298834 0.297535 30 153 133 
0.150228 -0.0286915 0.298952 32 153 139 
0.1502 -0.0278953 0.299795 37 154 137 
0.149872 -0.0267562 0.301116 36 153 138 
0.149704 -0.0227552 0.305079 24 155 126 
0.14992 -0.0217048 0.305959 16 149 118 
0.150137 -0.0200466 0.307468 12 127 94 
0.150487 -0.0409479 0.285764 36 150 143 
0.149673 -0.0251934 0.301191 31 157 139 
0.149339 -0.0238482 0.302417 26 152 125 
0.149543 -0.0230681 0.303341 27 158 128 
0.149781 -0.0223509 0.304014 26 156 128 
0.150024 -0.0215001 0.304663 24 156 128 
0.149806 -0.0243729 0.30051 29 156 138 
0.149805 -0.0223603 0.302578 30 159 129 
0.147738 -0.0413341 0.274538 21 86 67 
0.146966 -0.0426254 0.272275 22 88 65 
0.146138 -0.040425 0.271607 17 85 57 
0.145778 -0.0393104 0.271241 8 87 61 
0.144036 -0.0366878 0.266883 23 89 71 
0.143806 -0.0347537 0.266794 37 92 71 
0.143919 -0.0331442 0.2667 42 89 69 
0.143531 -0.0318425 0.266407 42 80 60 
0.143377 -0.0302979 0.267626 25 97 69 
0.142899 -0.00660105 0.29083 27 129 110 
0.142763 -0.00585691 0.289912 36 126 104 
0.142479 -0.0259361 0.269169 35 101 83 
0.142059 -0.0068467 0.285927 55 119 97 
0.141675 -0.0199612 0.271373 84 89 72 
0.141283 -0.0210277 0.269737 74 65 44 
0.140987 -0.0188862 0.272085 89 85 58 
0.141315 -0.0176398 0.273081 75 78 55 
0.141159 -0.0158727 0.274521 72 85 63 
0.140725 -0.0145403 0.275733 80 91 67 
0.141001 -0.0137017 0.276366 81 95 73 
0.14069 -0.0113709 0.277179 94 86 51 
0.140597 -0.00767349 0.281516 116 105 73 
0.150037 -0.0494422 0.281617 45 136 132 
0.149667 -0.0481611 0.282951 27 145 141 
0.149717 -0.0473549 0.283716 30 149 138 
0.149402 -0.038485 0.29207 41 153 140 
0.149391 -0.0314791 0.299233 34 155 136 
0.14939 -0.0302721 0.300471 28 153 135 
0.14939 -0.0294663 0.301299 27 156 137 
0.14939 -0.0286597 0.302128 32 155 136 
0.149389 -0.027448 0.303374 29 155 137 
0.149391 -0.0244097 0.306506 16 146 113 
0.149499 -0.0231711 0.307682 3 144 110 
0.149212 -0.0195631 0.31074 40 156 137 
0.149964 -0.0460772 0.283844 24 148 137 
0.149757 -0.041569 0.287982 26 148 134 
0.14943 -0.0352746 0.294378 18 153 134 
0.149373 -0.0338872 0.295847 26 151 135 
0.14948 -0.0330618 0.296589 27 153 137 
0.149694 -0.0318119 0.297664 36 150 137 
0.149746 -0.0301957 0.29927 34 153 133 
0.149799 -0.0289791 0.300467 26 153 137 
0.149799 -0.0281745 0.301294 38 154 137 
0.149648 -0.0271988 0.302126 32 156 138 
0.149384 -0.0260402 0.303411 25 159 143 
0.1493 -0.0252483 0.304149 18 153 135 
0.149385 -0.0240162 0.305496 11 148 118 
0.149574 -0.0231707 0.306189 18 148 112 
0.149709 -0.0223351 0.306924 6 136 100 
0.149748 -0.0213075 0.308423 13 129 92 
0.14957 -0.0340369 0.294573 24 152 138 
0.149542 -0.0258151 0.302082 34 158 139 
0.149283 -0.024453 0.303413 23 151 125 
0.149276 -0.0183558 0.310029 39 155 136 
0.149413 -0.0248367 0.302269 27 148 127 
0.146964 -0.0436331 0.272617 23 89 67 
0.146015 -0.0422545 0.271525 26 87 61 
0.145513 -0.0415712 0.270995 20 85 60 
0.145127 -0.0406579 0.270446 14 86 58 
0.144862 -0.0396366 0.269993 12 87 60 
0.144233 -0.0388509 0.268544 18 89 63 
0.143766 -0.0381551 0.267848 23 89 65 
0.144035 -0.037103 0.268674 13 90 62 
0.143781 -0.0363586 0.268002 16 90 67 
0.143739 -0.0351725 0.267748 19 92 71 
0.143026 -0.0335349 0.266431 72 82 55 
0.142069 -0.0331478 0.266689 80 80 56 
0.14203 -0.0301793 0.267915 59 76 53 
0.142105 -0.0271928 0.269077 43 87 76 
0.141073 -0.025805 0.269497 60 85 64 
0.141224 -0.0245882 0.269719 71 93 73 
0.141338 -0.00648877 0.287711 44 122 100 
0.140985 -0.006984 0.285715 106 122 99 
0.140427 -0.0201812 0.270343 85 74 56 
0.140422 -0.0193842 0.271138 97 88 67 
0.139915 -0.00698142 0.283436 113 106 74 
0.139673 -0.0179113 0.272282 88 76 46 
0.139724 -0.0171022 0.27305 85 74 49 
0.139828 -0.0158838 0.274185 79 74 54 
0.139648 -0.0143011 0.275892 85 89 67 
0.139865 -0.0130649 0.276964 95 96 73 
0.139598 -0.00910259 0.279364 111 95 63 
0.139583 -0.0075682 0.280323 113 92 60 
0.139246 -0.00691092 0.281805 133 111 83 
0.149304 -0.0509154 0.283316 62 134 134 
0.149118 -0.0219963 0.311175 42 157 143 
0.148904 -0.0212142 0.312193 47 152 143 
0.149553 -0.0508145 0.282245 52 133 130 
0.149274 -0.0497022 0.283324 34 143 142 
0.149246 -0.0487771 0.283973 27 145 141 
0.149238 -0.0481216 0.284798 26 147 136 
0.14892 -0.0446214 0.288174 12 148 133 
0.148714 -0.0334442 0.29881 25 152 134 
0.148875 -0.0324006 0.299725 32 155 135 
0.148981 -0.0307634 0.301303 25 152 134 
0.148981 -0.0295514 0.302548 28 156 135 
0.149143 -0.0272917 0.30472 22 158 145 
0.149089 -0.025882 0.306225 36 162 142 
0.149098 -0.0252691 0.307168 36 161 142 
0.149264 -0.0240156 0.308463 19 157 128 
0.149315 -0.023193 0.309107 27 154 130 
0.148828 -0.020009 0.312557 53 157 142 
0.14939 -0.0460619 0.285334 25 147 137 
0.148857 -0.0352155 0.29592 29 154 136 
0.149071 -0.0339617 0.296997 33 153 137 
0.149177 -0.0331342 0.297742 29 154 138 
0.14923 -0.0323186 0.298526 29 153 136 
0.149174 -0.0260735 0.304995 29 163 151 
0.148783 -0.0184036 0.312352 49 158 139 
0.148721 -0.0182316 0.311157 33 155 134 
0.146632 -0.045352 0.273897 34 94 70 
0.143808 -0.0397573 0.26888 22 87 61 
0.143174 -0.0391004 0.268276 33 84 68 
0.142282 -0.0358892 0.266436 84 80 73 
0.141586 -0.0344489 0.266655 75 79 56 
0.141 -0.0329795 0.266811 83 78 56 
0.141258 -0.0313317 0.267368 63 63 39 
0.140958 -0.0296029 0.268439 59 77 55 
0.140437 -0.0283122 0.269243 54 79 62 
0.140901 -0.0274254 0.26933 49 81 69 
0.140182 -0.0263698 0.269612 73 76 60 
0.140333 -0.0251483 0.269835 66 85 59 
0.139724 -0.0240665 0.270055 78 83 62 
0.139058 -0.00682741 0.285544 111 110 84 
0.139424 -0.021343 0.269927 81 72 53 
0.13924 -0.0201814 0.270345 82 64 42 
0.139084 -0.0186077 0.271586 105 94 65 
0.138596 -0.0178845 0.272224 96 84 53 
0.138586 -0.0164773 0.27363 94 76 50 
0.138565 -0.0134534 0.276653 94 92 73 
0.138378 -0.011877 0.277484 96 84 57 
0.138656 -0.00634708 0.283235 124 106 74 
0.138935 -0.0109995 0.277954 94 77 48 
0.138447 -0.00785633 0.279691 115 89 58 
0.138214 -0.00666038 0.281051 126 108 76 
0.148734 -0.0509152 0.284806 37 143 143 
0.148654 -0.0493217 0.285552 24 146 140 
0.148651 -0.0485253 0.286359 31 147 140 
0.148329 -0.0331354 0.301396 38 156 136 
0.148436 -0.0320991 0.302357 35 155 134 
0.148382 -0.0312999 0.30323 33 154 132 
0.148221 -0.0301159 0.304604 26 154 134 
0.148222 -0.0282838 0.306492 26 157 144 
0.148223 -0.0262426 0.3086 37 162 144 
0.148762 -0.0249139 0.309454 39 162 145 
0.148895 -0.0472374 0.286488 36 147 141 
0.148049 -0.040854 0.292832 18 152 136 
0.148399 -0.0381441 0.294312 28 154 137 
0.148395 -0.0361354 0.296364 34 155 134 
0.148554 -0.034488 0.297895 34 155 134 
0.148145 -0.0337796 0.29996 30 156 134 
0.148735 -0.0320306 0.301187 32 155 134 
0.148681 -0.029208 0.30414 30 155 139 
0.148736 -0.027166 0.306193 29 159 146 
0.139553 -0.0296863 0.268555 65 69 46 
0.139255 -0.00631787 0.288567 64 114 93 
0.139035 -0.0249883 0.270095 72 82 55 
0.13919 -0.00676119 0.287282 110 116 83 
0.138192 -0.0219484 0.270233 93 81 63 
0.137798 -0.00618836 0.285343 113 102 68 
0.137712 -0.0200329 0.270736 84 65 40 
0.137523 -0.0184609 0.271559 106 95 70 
0.137513 -0.0170496 0.272967 99 83 51 
0.138467 -0.0154863 0.274702 85 70 44 
0.138347 -0.014493 0.275777 87 77 53 
0.137653 -0.0129819 0.27691 96 89 66 
0.138069 -0.00618826 0.284262 121 107 72 
0.137288 -0.0104037 0.278863 98 79 52 
0.137588 -0.00715704 0.280129 116 89 54 
0.148181 -0.0508966 0.285832 36 141 143 
0.148086 -0.0499135 0.286445 26 144 142 
0.148137 -0.0490985 0.287219 34 147 139 
0.147548 -0.0341278 0.302089 34 155 132 
0.147655 -0.0328839 0.303263 37 155 135 
0.147708 -0.0306319 0.305529 29 154 135 
0.147551 -0.0263675 0.310087 28 154 141 
0.148014 -0.0225906 0.312587 45 157 146 
0.147367 -0.0380147 0.297329 33 154 136 
0.147365 -0.0368009 0.298571 36 154 131 
0.147364 -0.0359908 0.299401 30 157 130 
0.148114 -0.0293245 0.305523 34 157 140 
0.148061 -0.0272958 0.307668 38 160 144 
0.147828 -0.0380936 0.295855 35 155 141 
0.147933 -0.0358494 0.298046 34 154 129 
0.147931 -0.0346374 0.299288 33 157 132 
0.138814 -0.00622288 0.293478 31 126 107 
0.139293 -0.0309409 0.268392 71 62 41 
0.13848 -0.0295004 0.268677 68 68 46 
0.138736 -0.0276448 0.269442 65 65 45 
0.13844 -0.0266993 0.269723 71 69 50 
0.137776 -0.0240175 0.270242 86 77 58 
0.137185 -0.0225201 0.270406 93 81 61 
0.136854 -0.0193709 0.271141 80 62 40 
0.137222 -0.0158773 0.274342 101 79 51 
0.137048 -0.0150907 0.275251 89 74 45 
0.137208 -0.0138514 0.276367 90 79 58 
0.136442 -0.0182316 0.271692 107 94 72 
0.136491 -0.0172115 0.272669 110 95 66 
0.136684 -0.012717 0.276996 102 93 68 
0.136904 -0.0118752 0.277675 100 85 59 
0.136564 -0.00603323 0.281979 134 116 84 
0.147574 -0.0515111 0.286907 44 144 144 
0.146875 -0.0342861 0.303542 33 157 135 
0.146982 -0.0328326 0.304932 40 153 135 
0.147143 -0.031571 0.306075 31 155 132 
0.147022 -0.0421566 0.294393 20 151 136 
0.146907 -0.0381372 0.298604 34 154 133 
0.146906 -0.0373254 0.299435 33 157 134 
0.146798 -0.0361318 0.300762 28 156 132 
0.147012 -0.0352679 0.30144 26 154 129 
0.147333 -0.0294851 0.307076 32 158 138 
0.147173 -0.0282887 0.308466 32 153 139 
0.14712 -0.0274784 0.309355 38 155 140 
0.137959 -0.0283976 0.269284 75 66 45 
0.137216 -0.0277363 0.269618 68 66 45 
0.136831 -0.00576002 0.290053 118 120 84 
0.137514 -0.0252676 0.270077 83 72 49 
0.136767 -0.00662216 0.28834 119 118 90 
0.136586 -0.0238277 0.270431 87 75 57 
0.135939 -0.0207238 0.270901 101 89 72 
0.135528 -0.0177715 0.271929 114 96 76 
0.135888 -0.0162902 0.273579 106 85 59 
0.135682 -0.0150973 0.274912 104 81 55 
0.135676 -0.0142827 0.275725 87 69 40 
0.135605 -0.0128721 0.276738 104 86 62 
0.135768 -0.0120345 0.277454 105 90 65 
0.135762 -0.0112173 0.278271 100 82 55 
0.135754 -0.00998986 0.279499 103 85 60 
0.135274 -0.00571971 0.284098 130 108 69 
0.146818 -0.0511712 0.289262 33 146 142 
0.146204 -0.0356727 0.303739 31 155 135 
0.146311 -0.0344196 0.304922 34 154 138 
0.146311 -0.0329844 0.3064 35 154 135 
0.146258 -0.0317637 0.30771 30 157 136 
0.146262 -0.0276404 0.31197 37 154 139 
0.146561 -0.0414817 0.296483 31 153 137 
0.146449 -0.0380558 0.300092 31 155 135 
0.14634 -0.0366552 0.301632 27 156 133 
0.146554 -0.0353807 0.302731 28 155 130 
0.146661 -0.0302393 0.307918 28 156 135 
0.146447 -0.0296674 0.308718 27 155 132 
0.146449 -0.0284321 0.309994 41 153 140 
0.146521 -0.0244975 0.313514 42 153 141 
0.146726 -0.0434633 0.294305 20 153 139 
0.137624 -0.0316886 0.268934 74 65 44 
0.136324 -0.0283116 0.269719 75 59 38 
0.136361 -0.0270922 0.270014 68 66 43 
0.136342 -0.026087 0.270139 75 67 46 
0.136325 -0.0250822 0.270264 83 72 49 
0.136046 -0.00652807 0.287626 119 104 72 
0.135508 -0.022002 0.270828 92 80 58 
0.134989 -0.0198744 0.27111 99 85 70 
0.13497 -0.0186678 0.271439 86 66 45 
0.134338 -0.0168123 0.272263 122 109 86 
0.1344 -0.0161206 0.273052 115 101 77 
0.134425 -0.0154338 0.273862 114 92 65 
0.134592 -0.0146563 0.274809 106 85 59 
0.13452 -0.0132418 0.275823 88 63 37 
0.134627 -0.0124088 0.276575 111 92 67 
0.134774 -0.0117044 0.277317 111 96 70 
0.134471 -0.0103748 0.278707 96 73 46 
0.134534 -0.00967857 0.279502 114 92 65 
0.134814 -0.00746834 0.280914 114 90 63 
0.13469 -0.00583048 0.282634 132 113 84 
0.146491 -0.0519785 0.292615 41 149 139 
0.146442 -0.0523466 0.290361 52 142 143 
0.146504 -0.0511262 0.292018 36 148 140 
0.146116 -0.0504201 0.292638 36 150 141 
0.146518 -0.0504781 0.291217 37 148 142 
0.145723 -0.0376463 0.304128 23 153 131 
0.145776 -0.036402 0.305354 31 155 137 
0.145723 -0.0355924 0.30624 33 154 137 
0.145723 -0.0345635 0.3073 44 153 134 
0.145643 -0.0325173 0.308512 28 156 135 
0.145592 -0.0298422 0.311328 35 154 140 
0.145756 -0.0271138 0.313994 41 153 142 
0.145765 -0.0396685 0.300558 36 153 137 
0.145697 -0.0392818 0.301504 33 153 136 
0.145947 -0.0381913 0.301731 28 155 133 
0.145924 -0.0369709 0.303166 25 154 132 
0.14607 -0.0342741 0.30628 44 153 136 
0.146045 -0.0309865 0.308722 30 156 135 
0.145885 -0.0297827 0.310122 34 156 134 
0.145939 -0.0289453 0.310935 42 154 141 
0.145891 -0.0256401 0.314411 42 152 141 
0.146107 -0.0438487 0.295473 21 152 137 
0.145811 -0.024624 0.314564 44 152 140 
0.136585 -0.0302831 0.269345 70 65 43 
0.135468 -0.0276658 0.270115 78 62 39 
0.135207 -0.0256888 0.270493 74 67 50 
0.134985 -0.0228985 0.270763 94 75 50 
0.134016 -0.0210413 0.271096 95 83 63 
0.134018 -0.0196281 0.27117 103 89 74 
0.133964 -0.00545801 0.284409 128 111 74 
0.133684 -0.0184706 0.271231 90 73 53 
0.133122 -0.0171407 0.271624 88 68 46 
0.133239 -0.015627 0.272748 122 109 80 
0.133095 -0.0142813 0.274036 113 90 58 
0.133089 -0.0134603 0.274854 107 89 54 
0.133368 -0.012737 0.275523 91 72 43 
0.133413 -0.0107356 0.277773 107 85 60 
0.133122 -0.00953043 0.279176 88 65 39 
0.133389 -0.00722653 0.281279 113 87 58 
0.14585 -0.0517681 0.29347 38 149 141 
0.145473 -0.0500014 0.2937 38 149 138 
0.145439 -0.0371094 0.306265 25 152 136 
0.145269 -0.035704 0.307553 36 153 138 
0.145056 -0.0345136 0.308993 44 152 140 
0.14487 -0.0314446 0.311365 25 153 132 
0.145343 -0.0284366 0.314507 47 153 138 
0.144989 -0.0478583 0.294421 27 151 138 
0.14509 -0.0451775 0.297048 28 153 137 
0.145456 -0.0393525 0.30264 31 155 133 
0.145189 -0.0332393 0.309194 35 152 138 
0.144975 -0.0326657 0.309998 30 156 135 
0.145192 -0.0303389 0.312191 33 152 140 
0.145223 -0.0263849 0.315278 45 157 146 
0.144714 -0.025236 0.315986 45 150 139 
0.134201 -0.0262788 0.270655 73 66 49 
0.134275 -0.0242354 0.270845 82 70 50 
0.133567 -0.0227363 0.271073 84 67 42 
0.13297 -0.0212138 0.271237 92 79 55 
0.132916 -0.0200084 0.27114 99 85 68 
0.132494 -0.00517888 0.285736 130 109 67 
0.132583 -0.00522737 0.283838 128 111 72 
0.13234 -0.0182795 0.271049 98 88 70 
0.132493 -0.0100369 0.278229 105 84 59 
0.132302 -0.00715454 0.281228 111 87 54 
0.132181 -0.00591797 0.282543 124 107 70 
0.131851 -0.0163226 0.271562 92 73 54 
0.131934 -0.0152877 0.272234 121 109 78 
0.13186 -0.0144771 0.272941 115 96 65 
0.131997 -0.0137698 0.273693 117 93 58 
0.1319 -0.0124103 0.27496 103 84 52 
0.131894 -0.011585 0.275783 95 78 46 
0.131807 -0.0105507 0.277313 110 93 68 
0.144972 -0.0520613 0.295028 48 146 142 
0.144782 -0.0508671 0.295456 40 150 142 
0.144694 -0.0306487 0.315336 75 153 142 
0.144591 -0.0496725 0.295884 30 152 140 
0.144395 -0.0451982 0.299662 36 154 136 
0.144792 -0.0389308 0.306672 28 151 134 
0.144924 -0.0370309 0.307512 26 151 140 
0.144604 -0.0364864 0.308393 36 153 140 
0.144605 -0.0350357 0.309889 42 153 142 
0.144445 -0.0338259 0.311298 38 153 139 
0.144393 -0.0330056 0.312199 33 152 138 
0.145145 -0.0299303 0.314638 62 152 140 
0.145045 -0.0495167 0.294618 35 147 136 
0.144596 -0.0479985 0.295959 28 151 141 
0.144518 -0.0467959 0.297423 28 151 139 
0.144628 -0.0459429 0.298021 29 152 137 
0.144577 -0.041641 0.302141 21 153 140 
0.144897 -0.0407367 0.302751 28 151 134 
0.14479 -0.0337454 0.310051 36 152 138 
0.144632 -0.0317039 0.312319 33 154 135 
0.144021 -0.0274476 0.316351 42 153 142 
0.133945 -0.0304049 0.270336 73 66 45 
0.134129 -0.0283278 0.270464 75 59 36 
0.133176 -0.00656315 0.291073 124 114 75 
0.133196 -0.026872 0.270814 67 62 44 
0.133454 -0.0256006 0.270988 76 67 50 
0.132484 -0.0225145 0.271189 83 66 41 
0.132182 -0.00515015 0.287786 125 108 69 
0.131772 -0.0210036 0.271417 95 79 56 
0.132338 -0.00516466 0.28676 126 106 66 
0.131677 -0.0193977 0.271 99 83 64 
0.131564 -0.00490344 0.284881 131 114 75 
0.131435 -0.00622525 0.281869 109 89 49 
0.131205 -0.00562063 0.282632 126 108 76 
0.130861 -0.00502484 0.283465 132 113 88 
0.131193 -0.0170369 0.271019 93 83 62 
0.131401 -0.0108259 0.276436 108 96 69 
0.131199 -0.00959317 0.278243 112 89 62 
0.131293 -0.0068779 0.280875 109 87 52 
0.130579 -0.0157033 0.27129 92 73 54 
0.130742 -0.0148556 0.272016 115 97 70 
0.130902 -0.0135954 0.273152 115 94 62 
0.130896 -0.0127692 0.273975 121 94 59 
0.130889 -0.0119422 0.274798 107 84 59 
0.130421 -0.0101291 0.276919 118 102 79 
0.13039 -0.00596155 0.281076 108 84 43 
0.143924 -0.0316481 0.31607 79 153 143 
0.144394 -0.0503801 0.296829 27 149 140 
0.144084 -0.0488172 0.298241 30 152 137 
0.143922 -0.0478354 0.299405 30 152 140 
0.144182 -0.0405416 0.306615 35 151 139 
0.144153 -0.0378449 0.308431 21 149 139 
0.143886 -0.0372859 0.309275 29 149 142 
0.143887 -0.0360381 0.310562 42 153 142 
0.144154 -0.0351439 0.311218 43 151 140 
0.144051 -0.0322477 0.314321 51 149 139 
0.144376 -0.0489161 0.296869 26 150 139 
0.14416 -0.047747 0.298275 33 152 141 
0.13689 -0.0429396 0.273726 35 89 71 
0.133236 -0.0289081 0.270558 80 67 45 
0.132149 -0.0254279 0.271227 79 65 48 
0.131948 -0.00592639 0.289893 122 105 68 
0.131662 -0.0238785 0.271327 82 70 50 
0.131124 -0.00479648 0.289809 132 115 76 
0.131062 -0.0223451 0.271491 83 66 41 
0.130982 -0.00486881 0.288028 129 109 69 
0.130763 -0.00472216 0.286977 130 110 67 
0.130728 -0.0203636 0.271013 98 79 54 
0.130657 -0.00456553 0.285858 130 111 68 
0.130374 -0.0185877 0.270795 98 80 58 
0.130496 -0.00462384 0.284566 127 109 78 
0.130044 -0.00515617 0.282115 117 95 56 
0.129957 -0.016413 0.270721 96 83 58 
0.129965 -0.011242 0.275242 100 77 56 
0.129677 -0.0106513 0.276025 92 70 42 
0.130077 -0.00954271 0.277738 107 86 58 
0.130014 -0.00871543 0.278602 100 75 53 
0.13004 -0.00623088 0.280159 112 87 51 
0.129402 -0.00440263 0.282413 129 112 75 
0.129192 -0.0153004 0.270869 94 78 57 
0.129521 -0.0138064 0.272122 119 103 70 
0.129457 -0.0129844 0.272978 114 93 60 
0.129333 -0.0117525 0.274282 119 92 63 
0.129287 -0.00655244 0.27902 115 97 73 
0.129361 -0.00507886 0.280431 108 86 41 
0.128918 -0.00516094 0.279316 106 84 45 
0.143932 -0.0505527 0.298594 29 151 141 
0.143622 -0.0491901 0.299803 29 151 138 
0.143632 -0.0481448 0.300366 35 151 141 
0.14347 -0.0469517 0.301747 37 152 138 
0.14352 -0.0419675 0.306807 42 151 141 
0.143414 -0.0407478 0.30817 31 150 143 
0.143064 -0.038116 0.310239 27 152 148 
0.143331 -0.0365913 0.311544 41 153 143 
0.143703 -0.0392095 0.308468 25 151 142 
0.143383 -0.0386637 0.309352 23 148 142 
0.132496 -0.0311054 0.27074 82 65 47 
0.13212 -0.0295347 0.270775 78 67 44 
0.131745 -0.0279633 0.27081 81 68 46 
0.131611 -0.0269615 0.271002 75 63 45 
0.130522 -0.00524461 0.290708 131 114 77 
0.130615 -0.0240602 0.27146 79 68 48 
0.130164 -0.0229061 0.271582 79 68 45 
0.129944 -0.00452451 0.289571 131 114 68 
0.130239 -0.0212566 0.27137 83 68 42 
0.129668 -0.00459439 0.288337 129 107 68 
0.129753 -0.0201114 0.27106 85 66 41 
0.129544 -0.00404574 0.28671 127 107 66 
0.129154 -0.00391372 0.285763 126 102 61 
0.129098 -0.0177648 0.270719 100 82 56 
0.128878 -0.00377128 0.284746 129 106 74 
0.128931 -0.0167725 0.270481 101 82 56 
0.128593 -0.00855676 0.27825 109 86 56 
0.128719 -0.0143415 0.271253 95 76 51 
0.128702 -0.012264 0.273319 110 89 57 
0.128668 -0.0110069 0.275029 105 82 60 
0.128442 -0.00970537 0.27662 113 96 67 
0.128691 -0.0036814 0.281828 130 109 76 
0.128017 -0.0134079 0.271763 109 87 59 
0.127887 -0.0113375 0.273898 118 100 66 
0.128311 -0.00362261 0.280657 126 105 64 
0.143215 -0.0497551 0.301124 37 153 143 
0.143001 -0.0487817 0.302336 40 150 140 
0.143117 -0.047702 0.302825 36 152 138 
0.143089 -0.0456354 0.304971 35 149 135 
0.143035 -0.0444032 0.30629 41 152 136 
0.143008 -0.0435782 0.307165 46 151 138 
0.142966 -0.0412902 0.309063 37 148 142 
0.142722 -0.0394615 0.310194 31 153 145 
0.142509 -0.0388862 0.311003 31 150 147 
0.131662 -0.0325133 0.271339 86 73 56 
0.131005 -0.0301651 0.270987 81 67 48 
0.130452 -0.0277959 0.27073 83 65 49 
0.130259 -0.00625663 0.292173 124 109 77 
0.130292 -0.00560113 0.293265 137 125 80 
0.130237 -0.0265986 0.270871 91 72 53 
0.130619 -0.0257043 0.271177 86 66 46 
0.129507 -0.00491261 0.29178 135 119 75 
0.129569 -0.0244496 0.271383 80 69 52 
0.12919 -0.0216351 0.271293 81 64 40 
0.129006 -0.00381883 0.289129 127 105 62 
0.12874 -0.0206827 0.27121 84 64 44 
0.128919 -0.00367621 0.287519 126 107 67 
0.128476 -0.00321276 0.288445 125 100 57 
0.128588 -0.0190656 0.271125 97 79 57 
0.128364 -0.00317974 0.285691 121 96 50 
0.128019 -0.0025714 0.286535 119 95 44 
0.127387 -0.016793 0.270628 104 80 57 
0.128052 -0.00305577 0.284229 126 103 64 
0.127739 -0.00258143 0.285066 123 95 48 
0.127989 -0.0154766 0.270627 97 78 53 
0.12788 -0.00901349 0.277094 119 100 70 
0.127776 -0.00291318 0.283213 127 108 65 
0.127363 -0.0141243 0.271052 90 71 50 
0.127259 -0.0124764 0.272306 120 100 71 
0.127302 -0.0104417 0.274584 114 92 64 
0.12733 -0.00918081 0.275813 100 76 49 
0.127177 -0.00806034 0.27762 112 91 60 
0.126931 -0.00310437 0.280014 129 110 67 
0.130712 -0.0318787 0.271326 88 71 57 
0.129454 -0.0286046 0.270514 91 78 55 
0.128982 -0.00532638 0.293588 140 124 80 
0.129258 -0.027194 0.270396 86 67 53 
0.128942 -0.0262172 0.270538 87 68 47 
0.128375 -0.0248692 0.270927 98 81 65 
0.12863 -0.0231679 0.271526 78 69 48 
0.127916 -0.0220518 0.271337 81 64 48 
0.127234 -0.0196845 0.271458 82 67 41 
0.12652 -0.00216424 0.284811 121 95 53 
0.125913 -0.014947 0.270771 94 77 52 
0.126383 -0.00266384 0.282607 129 108 66 
0.125947 -0.0137024 0.271084 92 73 48 
0.125852 -0.0123282 0.271909 107 87 59 
0.126066 -0.0116 0.272634 124 103 76 
0.126059 -0.0107608 0.273468 109 85 55 
0.125991 -0.00950652 0.274752 105 83 51 
0.126011 -0.00866602 0.275421 97 70 42 
0.126126 -0.0077952 0.276802 124 102 74 
0.125401 -0.002289 0.280344 130 110 67 
0.130168 -0.0349032 0.271484 90 78 58 
0.129884 -0.0339196 0.271302 88 79 58 
0.129701 -0.0324991 0.27102 84 74 56 
0.129013 -0.0318052 0.270552 83 74 54 
0.129019 -0.030417 0.270707 80 72 53 
0.128614 -0.0281428 0.27023 97 79 57 
0.1279 -0.0270314 0.270036 101 85 62 
0.127932 -0.0257798 0.270346 96 74 50 
0.127097 -0.023848 0.271045 98 86 66 
0.126826 -0.0218172 0.271437 81 62 45 
0.126066 -0.0165714 0.270853 98 76 50 
0.124746 -0.00623568 0.279268 100 78 52 
0.12493 -0.014671 0.270808 97 78 53 
0.125028 -0.00750744 0.276923 122 105 80 
0.124759 -0.00242945 0.282127 131 107 64 
0.124547 -0.0128608 0.271059 91 72 43 
0.124667 -0.0117998 0.271729 103 84 59 
0.12448 -0.0104225 0.272913 111 90 68 
0.124807 -0.0098795 0.27383 112 90 58 
0.124739 -0.00861926 0.275119 100 72 44 
0.124708 -0.0077135 0.275736 108 81 57 
0.124208 -0.00277945 0.279448 119 96 58 
0.124177 -0.0018682 0.28007 132 112 69 
0.133765 -0.0462976 0.277684 49 98 85 
0.128789 -0.0343578 0.271244 93 76 60 
0.128353 -0.0325636 0.270143 86 74 55 
0.128066 -0.0311605 0.270376 83 75 51 
0.127572 -0.0295877 0.270473 81 72 55 
0.12682 -0.025564 0.270149 110 90 67 
0.125978 -0.0223748 0.271182 102 86 57 
0.124515 -0.016377 0.271198 91 72 47 
0.124258 -0.00753305 0.279213 106 82 57 
0.123805 -0.00247284 0.283624 132 108 67 
0.123946 -0.0143924 0.270843 96 74 50 
0.123533 -0.00919226 0.274453 110 88 58 
0.123314 -0.0117798 0.271148 93 72 41 
0.123363 -0.0109279 0.271955 111 88 62 
0.123299 -0.0100881 0.272825 119 97 72 
0.123104 -0.00734837 0.275657 104 75 52 
0.123022 -0.000796042 0.280385 131 107 55 
0.127631 -0.0337597 0.270877 93 76 62 
0.126981 -0.0309563 0.270468 81 72 51 
0.126504 -0.0291653 0.270303 83 71 54 
0.126107 -0.0281953 0.270183 83 70 48 
0.125838 -0.0267833 0.26995 89 73 50 
0.125344 -0.0254105 0.269839 93 81 54 
0.125149 -0.0241889 0.270276 117 101 80 
0.124537 -0.0222 0.270855 105 78 56 
0.123111 -0.0132648 0.270713 98 76 52 
0.122465 -0.00941443 0.273436 101 80 54 
0.122201 -0.0087169 0.274896 113 91 56 
0.122788 -0.0011927 0.281495 130 110 61 
0.121847 -0.0105031 0.271567 100 81 54 
0.121943 -0.00238813 0.27921 113 94 45 
0.121809 -0.0011308 0.279938 129 114 61 
0.131084 -0.0461405 0.278232 74 93 83 
0.12521 -0.0287815 0.270252 83 69 52 
0.12475 -0.0267712 0.269828 85 69 48 
0.124177 -0.0247808 0.269466 90 72 50 
0.123927 -0.0237753 0.269724 110 93 70 
0.12372 -0.0212821 0.271421 101 82 55 
0.123655 -0.0202337 0.272502 74 57 39 
0.121967 -0.00718109 0.278827 123 106 83 
0.121932 -0.0121723 0.270765 97 74 42 
0.121762 -0.00749662 0.275786 99 71 45 
0.121295 -0.00958405 0.272229 109 93 64 
0.121158 -0.00859497 0.273593 100 76 49 
0.120478 -0.00125989 0.279762 133 116 59 
0.129935 -0.0455706 0.277871 79 94 89 
0.12452 -0.0295415 0.270459 84 70 50 
0.123582 -0.0261431 0.26945 81 65 44 
0.122589 -0.0233762 0.269226 92 73 46 
0.122853 -0.0217834 0.270312 103 82 62 
0.122612 -0.0204079 0.271685 105 86 62 
0.122735 -0.0195425 0.272303 71 54 36 
0.122024 -0.018394 0.272255 73 56 38 
0.121295 -0.0159906 0.271936 77 59 39 
0.121792 -0.00737355 0.280117 106 82 57 
0.120986 -0.0135421 0.270932 86 67 40 
0.121132 -0.00645506 0.278281 122 106 88 
0.121212 -0.00492823 0.280191 115 90 56 
0.120676 -0.011496 0.270895 95 74 45 
0.120471 -0.00788365 0.274586 107 81 46 
0.120237 -0.00726289 0.27535 102 74 46 
0.120213 -0.0100854 0.271231 89 69 46 
0.120078 -0.00861406 0.272316 116 97 68 
0.120016 -0.00790248 0.273206 112 88 57 
0.129756 -0.0471295 0.278851 95 114 104 
0.128592 -0.0446095 0.277098 105 115 103 
0.123494 -0.03037 0.270846 85 71 52 
0.123352 -0.028708 0.270289 86 69 48 
0.122299 -0.0255294 0.269128 82 62 42 
0.121954 -0.0245367 0.268975 81 63 39 
0.121303 -0.0227515 0.268903 92 72 50 
0.121426 -0.021461 0.269635 123 96 77 
0.121588 -0.0205853 0.270388 96 71 52 
0.121632 -0.0198674 0.271219 91 70 47 
0.120685 -0.0207387 0.269483 127 100 78 
0.120673 -0.0194604 0.270751 79 59 37 
0.121058 -0.0179117 0.272019 89 73 50 
0.120613 -0.00228872 0.285942 134 107 56 
0.119887 -0.0149244 0.272106 81 61 39 
0.120266 -0.00584733 0.280818 96 73 43 
0.119605 -0.00139207 0.284289 132 108 62 
0.119857 -0.00556396 0.277724 124 104 82 
0.119108 -0.000623852 0.283544 128 101 48 
0.119611 -0.0116274 0.271001 91 69 43 
0.118866 -0.005248 0.277767 127 105 81 
0.119054 -0.000460923 0.282371 129 109 58 
0.119109 -0.010012 0.271106 89 69 47 
0.11914 -0.00721732 0.273837 103 75 43 
0.118454 -0.00903016 0.271585 92 70 46 
0.118848 -0.00813077 0.272221 118 96 67 
0.128537 -0.0459181 0.277744 129 129 125 
0.122342 -0.0293194 0.27041 86 70 49 
0.121973 -0.0276942 0.269973 88 71 46 
0.12082 -0.0240979 0.268819 81 63 41 
0.119986 -0.021702 0.268701 95 70 49 
0.120137 -0.0184824 0.271165 88 70 50 
0.119453 -0.0203053 0.268914 109 85 61 
0.119612 -0.0189984 0.270095 109 89 71 
0.119599 -0.017501 0.27158 104 88 65 
0.119548 -0.006752 0.281314 98 76 48 
0.118902 -0.0062301 0.279966 106 91 72 
0.118207 -0.0130578 0.271404 71 54 40 
0.118776 -0.00433102 0.280553 112 80 56 
0.118585 -0.0121736 0.271123 74 56 34 
0.117946 -0.000134788 0.282492 132 108 54 
0.117919 -0.0053874 0.276417 99 71 41 
0.118427 -0.00271308 0.279639 109 88 44 
0.117766 -0.00105377 0.280787 135 116 62 
0.117793 -0.00739747 0.272704 125 102 72 
0.117557 -0.00677215 0.273467 109 88 55 
0.117392 -0.00589523 0.275342 108 83 49 
0.117314 -0.00417601 0.276782 115 97 64 
0.123131 -0.0355515 0.273433 91 74 60 
0.121508 -0.0307511 0.270985 87 71 50 
0.121002 -0.0287204 0.270111 88 68 45 
0.120076 -0.0259153 0.269377 96 77 48 
0.120447 -0.0250049 0.269098 86 70 47 
0.119077 -0.023543 0.268723 94 74 54 
0.118657 -0.0210703 0.268387 91 69 49 
0.119074 -0.0180168 0.270508 83 63 43 
0.118776 -0.016554 0.272148 101 88 64 
0.118219 -0.019868 0.268338 98 75 54 
0.118263 -0.0190074 0.268851 124 100 77 
0.118321 -0.0169942 0.270796 91 69 51 
0.118126 -0.0177472 0.269573 129 106 87 
0.118285 -0.00521344 0.280917 103 74 51 
0.117452 -0.00534397 0.279497 104 84 62 
0.117653 -0.00444069 0.280717 107 77 51 
0.117478 -0.0118903 0.271203 67 49 27 
0.117434 -0.00238588 0.279684 112 88 45 
0.117202 -0.0102381 0.271187 86 61 43 
0.116891 -0.0092143 0.271484 92 67 43 
0.116829 -0.00487331 0.276248 98 69 38 
0.116519 -0.00797804 0.272025 93 68 42 
0.116449 -0.00668481 0.273341 128 105 76 
0.116078 -0.00389174 0.276321 103 87 55 
0.122188 -0.0348899 0.272923 91 73 62 
0.120787 -0.0300372 0.270353 87 69 47 
0.119981 -0.0282699 0.26989 86 66 40 
0.119327 -0.0266833 0.269601 90 71 42 
0.119092 -0.0256607 0.269387 96 77 50 
0.118705 -0.0244527 0.269 98 82 59 
0.11809 -0.0232804 0.268731 96 77 60 
0.118463 -0.0223725 0.268455 96 78 56 
0.117719 -0.0216436 0.268295 95 75 53 
0.117426 -0.0161178 0.271638 108 91 66 
0.117038 -0.0192038 0.267939 98 75 56 
0.117585 -0.0165446 0.270199 117 94 75 
0.117171 -0.0150878 0.271904 113 95 72 
0.116783 -0.0181762 0.268202 108 81 63 
0.116703 -0.0166847 0.269263 126 102 83 
0.116757 -0.0159556 0.270099 111 88 70 
0.116378 -0.000170939 0.285301 122 95 42 
0.116607 -0.0128444 0.271278 85 69 48 
0.116591 -0.00480753 0.279205 104 82 56 
0.116384 -0.00372716 0.280557 104 79 48 
0.116339 0.000196338 0.283847 131 104 41 
0.116485 -0.0115912 0.271221 66 50 27 
0.115862 -0.00405365 0.278581 103 83 53 
0.115854 -0.000784069 0.281352 129 109 58 
0.11593 -0.0103891 0.271235 76 52 31 
0.116168 -0.00559758 0.275497 103 78 42 
0.115673 -0.0017072 0.27964 113 87 43 
0.115602 -0.00612406 0.273966 113 89 58 
0.115227 -0.00288277 0.277389 106 90 59 
0.115244 -0.000673704 0.280011 124 106 54 
0.118372 -0.0277094 0.269253 89 70 43 
0.118135 -0.0264685 0.269251 88 65 41 
0.117606 -0.0244256 0.268852 98 78 55 
0.1167 -0.0224459 0.268184 109 93 68 
0.116544 -0.00175109 0.288264 135 106 51 
0.11643 -0.0210003 0.267793 112 95 71 
0.116036 -0.0200006 0.267351 113 96 74 
0.116095 -0.0189259 0.267453 92 71 53 
0.115442 -0.0177455 0.267356 91 71 48 
0.11547 -0.0168792 0.268038 105 83 59 
0.115457 -0.0155817 0.269321 126 104 81 
0.115712 -0.0139579 0.270908 98 72 56 
0.115229 -0.00406089 0.280355 97 69 41 
0.115062 -0.0128376 0.270899 103 79 56 
0.115335 -0.00278112 0.280169 110 85 47 
0.114839 -0.0109483 0.271068 100 78 50 
0.114408 -0.00537103 0.274994 97 71 40 
0.114626 -0.00403997 0.276168 100 73 38 
0.114779 -4.57838e-05 0.280921 135 116 60 
0.113903 -0.00850148 0.271316 74 48 35 
0.114581 -0.00712835 0.272246 90 63 39 
0.114108 -0.00586217 0.273783 125 108 71 
0.11417 -0.00280149 0.276449 121 98 65 
0.113666 0.00084509 0.278822 135 108 63 
0.119302 -0.0318177 0.271996 88 73 57 
0.118502 -0.0356324 0.265536 112 95 79 
0.118988 -0.0308052 0.270883 94 76 54 
0.117265 -0.027267 0.268754 101 84 59 
0.116905 -0.0264758 0.268235 108 93 67 
0.116604 -0.025384 0.26828 91 70 44 
0.11589 -0.0253745 0.266765 114 97 72 
0.116175 -0.0240296 0.268052 90 67 41 
0.115633 -0.0219826 0.267504 95 78 53 
0.115017 -0.021015 0.267018 97 77 52 
0.115064 -0.0197274 0.266874 116 96 75 
0.114738 -0.0185684 0.266693 115 97 77 
0.114039 -0.0177506 0.266261 116 98 83 
0.114439 -0.0163211 0.267565 98 80 58 
0.114356 -0.0148869 0.268874 123 101 79 
0.114315 -0.0135873 0.270178 102 77 63 
0.114372 -0.00352118 0.279897 100 69 38 
0.113622 -0.0158743 0.266993 94 71 50 
0.113601 -0.0137008 0.269141 121 96 78 
0.113691 -0.00275027 0.279397 101 75 40 
0.113871 -0.00143031 0.280124 113 89 46 
0.113784 -0.000146084 0.280523 132 112 61 
0.113527 -0.00703439 0.272076 88 64 39 
0.113461 -0.00616564 0.27297 107 86 61 
0.113142 -0.00508394 0.274686 111 89 55 
0.113457 -0.00394549 0.27607 100 72 36 
0.112846 -0.00204267 0.2774 125 108 71 
0.113498 4.28408e-06 0.279472 124 96 54 
0.112583 -0.0064905 0.272274 88 64 39 
0.112575 -0.00561376 0.27314 104 87 62 
0.113002 -0.0020628 0.276368 129 104 68 
0.112326 0.000505246 0.278388 126 97 54 
0.108842 0.00674726 0.270146 96 94 84 
