ply
format ascii 1.0
comment Created by CloudCompare v2.11 alpha (Anoia)
comment Created 20/2/20 下午10:46
obj_info Generated by CloudCompare!
element vertex 1168
property float x
property float y
property float z
property uchar red
property uchar green
property uchar blue
end_header
0.0857077 -0.00768501 0.805404 56 66 80 
0.0845341 -0.00722784 0.804311 71 84 95 
0.0832579 -0.00699031 0.803153 82 92 95 
0.0819832 -0.0067544 0.801997 80 90 93 
0.0807103 -0.00652009 0.800842 82 90 89 
0.0794905 -0.00617748 0.799722 83 91 90 
0.0781695 -0.00605619 0.798538 84 92 91 
0.0769016 -0.00582659 0.797389 85 91 89 
0.0755845 -0.00570881 0.796209 85 91 89 
0.0742185 -0.00570321 0.795 85 91 89 
0.0728043 -0.00581038 0.793761 86 92 90 
0.0713926 -0.00591999 0.792525 87 93 91 
0.0698829 -0.0062536 0.791228 87 93 91 
0.0685269 -0.00625741 0.790029 86 92 90 
0.0671232 -0.00637442 0.788801 84 90 88 
0.0654231 -0.00716138 0.78739 84 90 88 
0.0635785 -0.0082866 0.78589 83 89 87 
0.0615907 -0.00975156 0.784305 80 86 86 
0.0597573 -0.0108874 0.782817 82 88 88 
0.0579294 -0.0120282 0.781335 82 88 88 
0.0563031 -0.0127262 0.779979 83 91 92 
0.0547787 -0.013204 0.778687 83 91 92 
0.0533554 -0.0134605 0.777459 83 91 92 
0.0519835 -0.0136071 0.776263 84 92 93 
0.0505174 -0.0139814 0.775011 84 92 93 
0.0488131 -0.0149222 0.773615 84 92 93 
0.0471137 -0.0158674 0.772224 84 92 93 
0.0453711 -0.0169301 0.770808 84 92 93 
0.0437291 -0.0177713 0.769456 83 91 92 
0.0422345 -0.0182767 0.768194 84 92 93 
0.0408384 -0.0185586 0.766994 85 93 94 
0.0394451 -0.0188431 0.765796 85 92 96 
0.0381491 -0.0189029 0.764658 85 92 96 
0.0368083 -0.0190787 0.763494 86 93 97 
0.0355636 -0.0190288 0.762389 85 92 96 
0.0342743 -0.0190949 0.761257 85 92 96 
0.0330337 -0.0190488 0.760156 84 91 95 
0.0318414 -0.01889 0.759085 86 91 96 
0.0306969 -0.0186182 0.758042 86 92 94 
0.0296457 -0.018118 0.757055 86 92 94 
0.0286411 -0.0175036 0.756096 87 93 95 
0.0275911 -0.0170045 0.75511 92 95 98 
0.0265872 -0.0163909 0.754152 93 96 99 
0.0256291 -0.0156622 0.753221 96 99 100 
0.024671 -0.0149335 0.75229 102 102 102 
0.0237129 -0.0142049 0.751359 103 103 103 
0.0227547 -0.0134763 0.750428 112 111 111 
0.0218413 -0.0126318 0.749523 115 114 114 
0.0209276 -0.011787 0.748618 117 116 116 
0.0200135 -0.0109419 0.747712 119 118 118 
0.0190991 -0.0100964 0.746807 122 121 121 
0.0182284 -0.00913417 0.745926 120 119 119 
0.0173571 -0.00817138 0.745045 118 117 117 
0.0164413 -0.00732476 0.744138 84 87 88 
0.0155251 -0.00647783 0.743231 87 90 91 
0.014652 -0.00551349 0.742348 81 84 85 
0.0922621 -0.0120146 0.813907 56 68 74 
0.0912424 -0.0112274 0.812911 57 69 75 
0.09017 -0.0105487 0.81188 45 56 65 
0.089098 -0.00987041 0.810849 43 54 65 
0.0880265 -0.00919259 0.809819 42 53 64 
0.0869032 -0.00862402 0.808756 39 48 60 
0.0857805 -0.00805616 0.807694 37 47 61 
0.0846066 -0.00759816 0.806599 36 46 60 
0.0834856 -0.00703186 0.805538 36 46 60 
0.082262 -0.00668514 0.804412 38 48 62 
0.0809881 -0.00644922 0.803255 40 50 64 
0.0797674 -0.00610524 0.802132 53 62 74 
0.078548 -0.00576252 0.80101 81 91 96 
0.07733 -0.0054211 0.79989 83 93 98 
0.0761133 -0.005081 0.798771 81 92 90 
0.0748472 -0.00485241 0.797622 81 89 88 
0.0735828 -0.00462538 0.796474 83 91 90 
0.0722192 -0.00462103 0.795264 86 92 90 
0.0708578 -0.00461882 0.794056 86 92 90 
0.0694486 -0.00472969 0.79282 87 93 91 
0.068242 -0.004399 0.791711 89 92 91 
0.066937 -0.00429177 0.790542 89 92 91 
0.0654353 -0.00463152 0.78925 89 92 91 
0.0637884 -0.00530863 0.787868 89 92 91 
0.0618494 -0.00665897 0.786305 86 89 88 
0.0600641 -0.00767982 0.78484 86 89 88 
0.0582349 -0.00881726 0.78335 85 88 87 
0.0565578 -0.00962377 0.781957 84 90 90 
0.0549338 -0.0103223 0.780598 84 90 90 
0.0534597 -0.0106878 0.779334 87 90 91 
0.0519888 -0.0110564 0.778073 87 90 91 
0.0504729 -0.0115404 0.776786 87 90 91 
0.0486719 -0.0127042 0.775324 88 91 92 
0.0468284 -0.0139859 0.773839 87 90 91 
0.045134 -0.0149338 0.772447 84 90 92 
0.0433491 -0.0161127 0.771002 83 91 92 
0.041712 -0.0169565 0.769649 84 92 93 
0.0402213 -0.0174641 0.768387 84 92 93 
0.0388284 -0.0177477 0.767187 84 92 93 
0.0375323 -0.0178065 0.766046 84 92 93 
0.0362385 -0.0178674 0.764907 85 93 94 
0.0349468 -0.0179304 0.763771 84 92 93 
0.0336109 -0.0181099 0.762609 83 91 92 
0.0323703 -0.0180628 0.761505 84 92 93 
0.0311778 -0.0179033 0.760431 85 91 93 
0.0300329 -0.0176304 0.759386 85 91 93 
0.0289351 -0.017244 0.75837 85 91 93 
0.0278841 -0.0167437 0.757383 88 91 94 
0.0268336 -0.016244 0.756396 91 94 97 
0.0258292 -0.0156295 0.755437 93 96 99 
0.0248703 -0.0149001 0.754505 94 97 98 
0.0238664 -0.0142862 0.753546 101 100 102 
0.0229526 -0.0134413 0.752641 102 101 103 
0.0219936 -0.0127119 0.751709 107 101 103 
0.0210347 -0.0119826 0.750777 112 106 108 
0.0201202 -0.0111371 0.749871 118 112 114 
0.019161 -0.0104076 0.74894 120 115 113 
0.0182901 -0.00944537 0.748059 121 118 115 
0.0173305 -0.00871551 0.747127 122 119 116 
0.0164586 -0.0077523 0.746246 121 118 115 
0.0154986 -0.0070222 0.745314 88 88 88 
0.0145821 -0.00617504 0.744406 89 89 89 
0.0136652 -0.00532764 0.743499 79 82 81 
0.0889611 -0.0106776 0.813007 54 63 73 
0.0879423 -0.00989121 0.812011 48 57 69 
0.0868191 -0.0093224 0.810947 46 55 67 
0.0856965 -0.00875431 0.809883 41 50 62 
0.0846268 -0.00807798 0.808855 41 50 62 
0.0835056 -0.0075112 0.807793 39 48 60 
0.0823853 -0.00694519 0.806732 39 48 60 
0.0812141 -0.00648928 0.805639 36 47 58 
0.0799925 -0.00614393 0.804513 37 48 59 
0.0787724 -0.00579989 0.803389 35 45 59 
0.0776047 -0.00534725 0.802299 49 59 73 
0.0763871 -0.00500566 0.801178 54 64 78 
0.0751708 -0.00466543 0.800058 64 78 84 
0.0740066 -0.00421607 0.798972 78 91 90 
0.0727929 -0.00387818 0.797855 79 92 91 
0.07148 -0.00376278 0.796674 83 91 90 
0.0702193 -0.00353843 0.795528 85 91 91 
0.0689601 -0.00331575 0.794384 86 92 92 
0.0678023 -0.00287247 0.793305 87 93 91 
0.0665461 -0.00265259 0.792164 86 92 90 
0.0651927 -0.00265682 0.790962 86 92 90 
0.0635455 -0.00333202 0.789574 89 92 91 
0.0619024 -0.00401103 0.788191 89 92 91 
0.0602145 -0.00480562 0.786782 88 91 90 
0.058531 -0.00560445 0.785377 87 90 89 
0.0569008 -0.00629544 0.784007 87 90 89 
0.0552747 -0.00699025 0.782641 87 90 89 
0.0536528 -0.007689 0.78128 89 89 89 
0.052035 -0.00839156 0.779922 88 88 88 
0.0504214 -0.00909799 0.778569 88 88 88 
0.048716 -0.0100339 0.777161 89 89 89 
0.0467289 -0.0116517 0.775579 90 90 92 
0.0447961 -0.0131626 0.774034 90 90 92 
0.0427748 -0.0149059 0.772436 87 90 91 
0.0409968 -0.0160888 0.770991 87 90 91 
0.0395071 -0.0165959 0.769726 87 90 91 
0.0381618 -0.0167654 0.768551 86 92 94 
0.0368658 -0.0168234 0.767408 85 91 93 
0.0355721 -0.0168835 0.766267 86 92 94 
0.0343271 -0.0168316 0.765156 84 90 92 
0.0330377 -0.0168957 0.764019 84 90 92 
0.0317505 -0.016962 0.762885 85 91 93 
0.0305576 -0.0168013 0.761808 87 90 93 
0.0293663 -0.0166422 0.760734 86 89 92 
0.028268 -0.0162548 0.759716 87 90 93 
0.0271707 -0.0158685 0.758699 88 91 94 
0.0261196 -0.0153678 0.757711 91 94 95 
0.0250692 -0.0148678 0.756723 92 95 96 
0.0241096 -0.0141377 0.75579 97 96 98 
0.02315 -0.0134075 0.754857 103 99 102 
0.0221903 -0.0126774 0.753925 103 99 102 
0.0212306 -0.0119473 0.752992 108 99 102 
0.0202709 -0.0112171 0.752059 108 100 99 
0.0193112 -0.010487 0.751126 110 102 101 
0.0183955 -0.00964057 0.75022 113 105 104 
0.0174356 -0.0089103 0.749287 113 108 106 
0.0164756 -0.00818002 0.748355 118 113 111 
0.0155592 -0.00733298 0.747448 118 113 111 
0.0145554 -0.00671947 0.74649 92 92 88 
0.0136386 -0.00587213 0.745582 84 84 80 
0.0127214 -0.00502449 0.744675 76 77 73 
0.0844908 -0.00888473 0.81101 48 54 65 
0.0834218 -0.00820887 0.809981 48 54 65 
0.0823015 -0.00764263 0.808919 45 51 62 
0.081182 -0.00707704 0.807858 40 49 59 
0.0800632 -0.00651217 0.806798 38 47 57 
0.078894 -0.00605768 0.805705 38 47 57 
0.0777258 -0.00560415 0.804614 36 47 58 
0.0765587 -0.00515157 0.803523 38 48 62 
0.0753926 -0.00470012 0.802434 40 50 64 
0.0742275 -0.00424963 0.801345 42 54 68 
0.0730635 -0.00380009 0.800258 61 74 83 
0.0719006 -0.00335151 0.799172 79 92 101 
0.0706885 -0.00301462 0.798055 84 94 97 
0.0694778 -0.00267905 0.796939 82 90 89 
0.0683182 -0.00223368 0.795857 84 92 91 
0.0671101 -0.00190049 0.794744 84 92 91 
0.0659032 -0.0015685 0.793632 84 92 91 
0.0645991 -0.00146043 0.792459 85 93 92 
0.0631986 -0.0015772 0.791225 87 93 91 
0.0617516 -0.00180811 0.789962 87 93 91 
0.0601122 -0.00248879 0.788577 86 92 90 
0.058623 -0.00283754 0.78729 85 91 89 
0.057137 -0.00318933 0.786006 87 93 91 
0.0555091 -0.0038808 0.784634 86 92 90 
0.0538853 -0.00457609 0.783265 89 89 89 
0.0523618 -0.00505024 0.781962 89 88 88 
0.0507461 -0.00575304 0.780602 89 88 88 
0.0490389 -0.00668532 0.779186 92 88 89 
0.0470034 -0.00841254 0.777566 91 90 90 
0.0448801 -0.0103726 0.775893 92 91 91 
0.0424335 -0.0131322 0.774021 92 91 91 
0.0407505 -0.014087 0.77263 91 91 91 
0.0391193 -0.0149326 0.771272 91 91 91 
0.0376329 -0.0154414 0.770006 90 90 92 
0.03629 -0.0156119 0.768831 87 90 91 
0.0349961 -0.015671 0.767686 88 91 92 
0.0337044 -0.015732 0.766545 87 90 91 
0.032415 -0.0157952 0.765405 86 89 90 
0.0311738 -0.0157461 0.764296 87 90 91 
0.0299345 -0.0156989 0.763189 87 90 91 
0.0287428 -0.0155386 0.762112 86 89 90 
0.0275983 -0.015265 0.761064 87 90 91 
0.026455 -0.0149927 0.760018 89 92 93 
0.0254034 -0.0144913 0.759028 93 93 95 
0.0243975 -0.0138751 0.758067 94 94 96 
0.0233918 -0.0132594 0.757105 97 96 98 
0.0224313 -0.0125282 0.756171 99 98 98 
0.0215153 -0.0116815 0.755264 101 100 100 
0.0205101 -0.0110661 0.754304 107 102 100 
0.0195937 -0.0102191 0.753396 111 106 102 
0.0185888 -0.0096041 0.752436 111 106 102 
0.017672 -0.00875676 0.751529 111 106 102 
0.0167111 -0.00802559 0.750595 113 108 104 
0.0157502 -0.00729436 0.749661 115 110 106 
0.0147457 -0.00668001 0.748702 114 109 107 
0.0136983 -0.00618273 0.747717 92 89 86 
0.0126514 -0.00568604 0.746733 77 74 71 
0.0799796 -0.007209 0.808983 46 52 63 
0.0788617 -0.00664467 0.807923 40 49 59 
0.0777445 -0.00608104 0.806863 39 48 58 
0.0765772 -0.00562793 0.805771 37 48 57 
0.0754111 -0.00517571 0.80468 37 48 59 
0.0742459 -0.00472462 0.80359 39 50 61 
0.0731825 -0.00405401 0.802568 38 49 60 
0.0720191 -0.00360459 0.80148 42 52 66 
0.0708567 -0.00315613 0.800393 49 59 73 
0.0697952 -0.00248742 0.799373 52 63 74 
0.0686346 -0.00204068 0.798288 79 91 95 
0.067475 -0.0015949 0.797204 85 97 101 
0.0663164 -0.00115007 0.796121 81 92 92 
0.0651588 -0.000706255 0.79504 82 93 91 
0.0639531 -0.000374794 0.793928 82 93 91 
0.0626508 -0.000267625 0.792754 85 93 92 
0.0613015 -0.000273943 0.791551 87 93 91 
0.0598571 -0.000505984 0.790287 86 92 90 
0.0584642 -0.000628889 0.789057 85 91 89 
0.0570739 -0.000754178 0.78783 89 92 91 
0.055638 -0.000994027 0.786575 88 91 90 
0.0542049 -0.00123668 0.785323 91 90 90 
0.0528226 -0.00136948 0.784105 90 89 89 
0.0513951 -0.00161743 0.782858 89 88 88 
0.0498278 -0.0022065 0.781524 91 87 88 
0.0478376 -0.00381595 0.779924 92 88 89 
0.0455232 -0.00622344 0.77812 92 88 89 
0.042935 -0.00931883 0.776148 94 90 91 
0.0405924 -0.0118571 0.774334 94 93 93 
0.0387269 -0.0132684 0.772823 92 91 91 
0.0372404 -0.0137756 0.771553 92 91 91 
0.0357574 -0.014286 0.770286 90 90 90 
0.0344631 -0.0143438 0.769139 90 90 90 
0.0331711 -0.0144036 0.767994 87 90 89 
0.0318813 -0.0144656 0.766851 87 90 91 
0.0305479 -0.014644 0.765682 87 90 91 
0.0293541 -0.0144812 0.764601 87 90 91 
0.0281619 -0.0143197 0.763522 86 89 90 
0.0270166 -0.0140449 0.762472 88 91 92 
0.0258726 -0.0137714 0.761423 91 91 93 
0.0247749 -0.0133838 0.760404 95 94 94 
0.0237231 -0.0128818 0.759413 95 94 94 
0.0227166 -0.012265 0.75845 98 94 95 
0.0217549 -0.011533 0.757515 99 96 93 
0.0207932 -0.0108008 0.75658 103 100 97 
0.0198315 -0.0100687 0.755645 106 101 99 
0.0188698 -0.00933659 0.75471 108 103 99 
0.0179081 -0.00860453 0.753775 111 106 102 
0.0169463 -0.00787246 0.75284 114 106 103 
0.016028 -0.00702387 0.751931 114 109 105 
0.0150225 -0.00640827 0.75097 115 110 106 
0.0140173 -0.00579292 0.75001 101 96 94 
0.0130124 -0.00517792 0.749049 89 86 83 
0.0753278 -0.00587124 0.806861 47 56 66 
0.0741628 -0.00541979 0.80577 42 53 62 
0.0730996 -0.00474912 0.804747 43 54 63 
0.0719866 -0.00418913 0.803691 39 50 59 
0.0708743 -0.00362974 0.802635 38 49 58 
0.0698626 -0.00285012 0.801647 37 48 57 
0.0687514 -0.00229192 0.800593 38 49 60 
0.0676906 -0.00162357 0.799573 35 46 57 
0.0666301 -0.000955701 0.798553 37 48 59 
0.0654715 -0.000510395 0.797469 39 50 61 
0.0643139 -6.60419e-05 0.796386 61 73 79 
0.0631572 0.000377297 0.795304 75 87 93 
0.061904 0.000596583 0.79416 83 93 96 
0.0606524 0.000814319 0.793018 83 91 90 
0.0593539 0.000918627 0.791845 82 90 89 
0.0580574 0.00102121 0.790675 85 88 89 
0.056811 0.00123394 0.789538 87 90 91 
0.0555182 0.00133294 0.788371 88 91 90 
0.0542752 0.00154251 0.787238 89 89 89 
0.0530816 0.00186306 0.786137 90 90 90 
0.0518417 0.00206971 0.785007 91 90 90 
0.0504613 0.00193626 0.783787 90 90 86 
0.0487054 0.000896275 0.782328 90 90 86 
0.0467191 -0.000714183 0.780723 92 89 86 
0.0441763 -0.00369042 0.778766 92 89 86 
0.0415505 -0.00690335 0.77676 93 90 87 
0.0393087 -0.00921774 0.775002 92 89 86 
0.03754 -0.0104027 0.773547 93 90 85 
0.0359156 -0.011251 0.772186 94 91 86 
0.0343879 -0.0118755 0.770887 96 93 88 
0.03291 -0.0123894 0.769621 94 91 86 
0.0314815 -0.0127921 0.768388 90 90 86 
0.0301474 -0.012969 0.767215 91 91 87 
0.028907 -0.0129189 0.766103 91 91 87 
0.0277137 -0.0127559 0.76502 91 91 87 
0.0265221 -0.0125944 0.763939 92 92 88 
0.0253771 -0.0123193 0.762888 92 92 88 
0.0242333 -0.0120454 0.761838 98 93 91 
0.0231802 -0.011542 0.760845 99 94 92 
0.0221277 -0.0110392 0.759853 97 92 88 
0.0210759 -0.010537 0.758861 100 95 91 
0.0200689 -0.00991964 0.757897 102 97 93 
0.0191063 -0.00918663 0.756961 102 97 93 
0.0181436 -0.00845361 0.756025 102 97 93 
0.0171809 -0.00772065 0.755089 106 101 97 
0.0162182 -0.00698763 0.754153 111 106 102 
0.0152554 -0.00625461 0.753218 114 109 105 
0.0143359 -0.00540495 0.752308 111 106 102 
0.0133297 -0.00478858 0.751346 83 78 76 
0.0719036 -0.00488383 0.805868 49 60 69 
0.0708916 -0.00410372 0.804879 45 56 65 
0.06973 -0.00365496 0.80379 40 51 60 
0.0687186 -0.00287563 0.802802 39 50 59 
0.0676578 -0.00220704 0.801781 38 49 60 
0.0666468 -0.00142801 0.800793 36 47 58 
0.0655866 -0.000760138 0.799773 35 46 57 
0.0645267 -9.2566e-05 0.798753 33 44 55 
0.0633694 0.000351965 0.797669 40 51 62 
0.062213 0.000795543 0.796586 45 56 67 
0.0610577 0.00123811 0.795505 59 70 79 
0.0598548 0.00156802 0.794392 79 90 99 
0.0586533 0.00189668 0.793281 79 90 90 
0.0575013 0.00233603 0.792203 83 89 89 
0.0563503 0.00277448 0.791126 83 89 89 
0.0552003 0.00321198 0.79005 86 89 90 
0.0540036 0.00353605 0.788944 88 88 88 
0.0528557 0.00397146 0.787871 89 89 89 
0.0517089 0.00440598 0.786798 90 90 90 
0.0504212 0.00450081 0.785635 89 89 89 
0.0489943 0.00425476 0.784382 89 89 89 
0.0473827 0.00355321 0.783011 92 91 91 
0.0453542 0.00182784 0.781374 91 90 90 
0.0430532 -0.0005849 0.779563 91 90 90 
0.0408075 -0.00289226 0.777791 90 90 86 
0.038848 -0.00452501 0.776205 91 88 85 
0.0369414 -0.00604993 0.774656 92 89 84 
0.0350412 -0.00758088 0.773113 93 90 85 
0.0332846 -0.00877494 0.771664 95 90 86 
0.0315335 -0.00997418 0.770221 93 90 85 
0.0301062 -0.0103769 0.768985 94 91 86 
0.0287275 -0.0106679 0.767781 94 91 86 
0.0274419 -0.0107319 0.766638 93 90 85 
0.0261586 -0.0107981 0.765496 94 91 86 
0.0249672 -0.0106362 0.764414 96 93 88 
0.0238221 -0.0103604 0.763361 98 93 89 
0.0226337 -0.0102013 0.762281 98 93 89 
0.0214912 -0.00992817 0.761231 97 92 88 
0.0204384 -0.00942481 0.760238 100 95 91 
0.0194304 -0.00880629 0.759273 102 97 93 
0.0183787 -0.008304 0.758281 101 96 92 
0.0174151 -0.00757009 0.757344 101 96 92 
0.0164079 -0.00695246 0.75638 104 99 95 
0.0155747 -0.00586945 0.755523 107 102 98 
0.0146106 -0.00513524 0.754586 111 106 102 
0.0137328 -0.00416762 0.753702 100 95 91 
0.0676247 -0.00279057 0.80399 43 54 63 
0.0665643 -0.00212216 0.802968 40 51 62 
0.0655043 -0.00145417 0.801948 37 48 59 
0.0644937 -0.000675499 0.80096 36 47 58 
0.0633853 -0.000119388 0.799907 35 46 57 
0.0623264 0.000547528 0.798888 39 50 61 
0.0611706 0.000991046 0.797805 36 47 58 
0.0600643 0.00154513 0.796754 37 48 59 
0.0589587 0.00209856 0.795705 49 60 71 
0.0578057 0.00253946 0.794624 68 77 87 
0.0567016 0.00309139 0.793576 79 89 94 
0.0555503 0.0035305 0.792498 81 91 96 
0.0544478 0.00408101 0.791452 81 88 92 
0.0532984 0.00451839 0.790375 84 87 88 
0.05215 0.00495476 0.7893 85 88 89 
0.0510026 0.00539017 0.788226 89 89 91 
0.049809 0.00571167 0.787122 89 89 89 
0.048523 0.00580591 0.785958 89 89 89 
0.0471455 0.0056718 0.784735 91 91 91 
0.0456306 0.0051952 0.783423 91 91 91 
0.0437943 0.00392085 0.781904 91 91 91 
0.0419174 0.00252742 0.780361 90 91 87 
0.0401388 0.00135607 0.778883 89 89 83 
0.0382737 -4.82798e-05 0.777352 89 89 83 
0.0362772 -0.00180048 0.775738 91 86 82 
0.0343789 -0.00333071 0.774189 94 87 81 
0.0325325 -0.00475246 0.772677 96 89 83 
0.0309187 -0.00560707 0.771316 97 90 84 
0.0293094 -0.00646591 0.769959 95 91 84 
0.0277495 -0.00721401 0.768636 95 91 84 
0.0261489 -0.0080809 0.767288 95 91 84 
0.0247314 -0.00849146 0.766058 97 93 86 
0.0234061 -0.0086745 0.764889 99 92 86 
0.0221279 -0.00874448 0.76375 100 93 87 
0.0208959 -0.00870097 0.762641 99 92 86 
0.0197981 -0.00831199 0.761618 100 96 89 
0.0187011 -0.00792402 0.760596 101 97 90 
0.0176489 -0.00742096 0.759602 101 97 90 
0.0166407 -0.00680232 0.758637 101 97 90 
0.0156329 -0.00618392 0.757672 102 98 91 
0.0146687 -0.0054493 0.756734 106 101 97 
0.0141784 -0.00343233 0.756092 111 107 100 
0.0143716 0.000455856 0.755875 88 84 77 
0.0166095 0.0099625 0.756924 69 66 63 
0.0180989 0.0175018 0.757501 74 71 68 
0.0201641 0.0266985 0.758426 73 73 67 
0.0634009 -0.000590861 0.802147 47 57 64 
0.0622443 -0.000146031 0.801061 45 55 62 
0.061186 0.000520408 0.800042 41 50 60 
0.060128 0.00118655 0.799023 38 47 57 
0.0590221 0.00174063 0.797972 37 46 56 
0.0579169 0.002294 0.796922 38 49 60 
0.0568124 0.00284678 0.795873 37 48 59 
0.0557564 0.00351101 0.794856 37 47 61 
0.0546531 0.00406253 0.793808 37 47 61 
0.053598 0.00472575 0.792793 59 69 85 
0.0524485 0.00516361 0.791715 65 77 83 
0.0513944 0.00582582 0.790701 76 88 94 
0.0502466 0.00626212 0.789625 79 89 92 
0.0490998 0.00669736 0.78855 79 90 90 
0.0479072 0.00701863 0.787445 80 91 91 
0.0466228 0.00711215 0.786281 84 90 90 
0.0452938 0.00709039 0.785087 85 91 91 
0.0438746 0.00683957 0.783836 86 92 92 
0.042366 0.00635856 0.782526 88 91 90 
0.040769 0.00564671 0.781161 90 91 87 
0.0391762 0.00493091 0.779799 91 92 88 
0.0374962 0.00398308 0.778382 97 94 89 
0.0358665 0.0031451 0.777 96 93 88 
0.0341505 0.00207406 0.775563 94 91 86 
0.0323946 0.000883818 0.774102 91 87 80 
0.0306439 -0.000311494 0.772646 93 86 80 
0.0287642 -0.00185639 0.771109 98 89 84 
0.0267568 -0.00375223 0.769492 100 91 86 
0.0248902 -0.0053094 0.767968 100 93 87 
0.0232517 -0.00629592 0.766593 101 94 88 
0.0217506 -0.00694048 0.765308 101 94 88 
0.0203854 -0.00724185 0.764111 101 94 88 
0.0191986 -0.00708288 0.76303 103 96 90 
0.018057 -0.00680953 0.761977 103 96 90 
0.0169603 -0.00642127 0.760954 102 95 89 
0.0159512 -0.00580156 0.759987 104 99 95 
0.0148992 -0.00529855 0.758993 105 100 96 
0.0141495 -0.0039807 0.758191 106 101 97 
0.0136985 -0.001845 0.757576 93 88 84 
0.0143556 0.00333029 0.757658 75 70 66 
0.0155118 0.00991982 0.75805 72 72 66 
0.017034 0.0175778 0.758665 72 72 66 
0.060046 0.000493348 0.801195 47 54 62 
0.0589403 0.00104761 0.800143 45 52 60 
0.0578834 0.00171286 0.799125 39 49 56 
0.0568269 0.00237781 0.798107 39 48 58 
0.0557708 0.00304234 0.797089 39 48 58 
0.054715 0.00370651 0.796073 36 47 58 
0.0536596 0.00437027 0.795056 37 48 59 
0.0525572 0.00492126 0.794008 37 47 61 
0.0515026 0.00558412 0.792993 37 47 61 
0.0504014 0.00613391 0.791947 49 59 73 
0.0493009 0.00668317 0.790901 72 83 92 
0.048201 0.00723165 0.789856 81 91 94 
0.0470552 0.00766635 0.788781 81 91 94 
0.045864 0.00798684 0.787676 81 89 88 
0.0446278 0.00819272 0.786542 86 89 88 
0.0433011 0.00816983 0.785348 87 90 89 
0.0419766 0.00814492 0.784157 88 91 90 
0.0406543 0.00811791 0.782968 90 91 87 
0.039243 0.00786078 0.781721 91 92 88 
0.0378346 0.00760096 0.780477 95 95 91 
0.036429 0.00733846 0.779236 97 94 89 
0.0350263 0.00707322 0.777998 97 94 89 
0.0334465 0.00634694 0.776644 93 90 85 
0.031826 0.00550216 0.775266 93 89 82 
0.0299419 0.00396383 0.773717 93 89 82 
0.0278416 0.00184441 0.77203 93 89 82 
0.0255719 -0.000743151 0.770234 96 89 83 
0.023444 -0.00299323 0.768535 101 94 88 
0.0216325 -0.00444263 0.767043 102 95 89 
0.0200464 -0.00531942 0.765699 103 96 90 
0.0186832 -0.00562149 0.764501 106 99 93 
0.0174971 -0.00546247 0.763418 106 99 93 
0.0163124 -0.00530499 0.762337 106 98 95 
0.0151726 -0.00503284 0.761285 105 100 96 
0.0141202 -0.00452894 0.76029 107 102 98 
0.0138837 -0.0018121 0.759817 108 103 99 
0.0138203 0.00480473 0.759126 76 71 67 
0.0143721 0.0097602 0.759148 72 72 66 
0.0160114 0.0177709 0.759856 72 72 66 
0.0556892 0.00234973 0.799259 44 54 61 
0.0546812 0.00312597 0.798274 40 50 57 
0.0536259 0.00379002 0.797257 37 48 57 
0.0525235 0.0043413 0.796208 37 48 57 
0.051469 0.00500435 0.795192 37 48 59 
0.0504618 0.00577968 0.794208 36 47 58 
0.049361 0.00632948 0.793161 38 49 60 
0.0483075 0.00699145 0.792147 45 54 66 
0.0472079 0.00754011 0.791101 62 68 79 
0.0460625 0.00797492 0.790025 74 80 91 
0.0449181 0.00840873 0.788951 85 90 95 
0.0437747 0.00884169 0.787877 85 88 89 
0.0425403 0.00904649 0.786742 84 87 88 
0.0413076 0.00924969 0.78561 89 89 89 
0.0399853 0.0092237 0.784418 89 89 89 
0.0386652 0.00919557 0.783228 90 90 90 
0.0373473 0.00916529 0.782041 94 95 91 
0.0361219 0.00936168 0.780916 95 95 91 
0.0348531 0.00944203 0.779763 96 96 92 
0.0334966 0.00929135 0.778552 97 94 89 
0.0320533 0.00890881 0.777285 97 94 89 
0.0304352 0.0080635 0.775904 96 93 88 
0.0286885 0.00686878 0.77444 92 88 81 
0.0265497 0.00463217 0.77272 91 87 80 
0.024243 0.00192642 0.770892 91 87 80 
0.0221651 -0.000210583 0.769217 102 95 89 
0.02027 -0.00189227 0.767665 106 99 93 
0.0185991 -0.00300115 0.766262 107 100 94 
0.017237 -0.00330305 0.765061 107 100 94 
0.0160938 -0.00302708 0.764004 108 101 95 
0.015081 -0.00240356 0.763033 109 101 98 
0.0141114 -0.00166398 0.762089 111 103 100 
0.0140021 0.00826621 0.761063 76 71 67 
0.0138248 0.0112383 0.760625 70 70 64 
0.0154096 0.0191355 0.761317 72 72 66 
0.0513878 0.00431228 0.797359 47 54 60 
0.0503809 0.00508755 0.796375 40 47 53 
0.0493271 0.00575018 0.795359 41 48 56 
0.0482736 0.00641233 0.794344 40 47 55 
0.0472671 0.00718707 0.793361 38 47 57 
0.0461678 0.00773573 0.792315 40 46 57 
0.0450692 0.00828362 0.79127 40 46 57 
0.0439252 0.00871754 0.790194 48 54 67 
0.0427821 0.00915056 0.789119 53 59 72 
0.04164 0.0095827 0.788046 57 63 76 
0.0404077 0.00978625 0.786911 85 92 100 
0.0392224 0.0101022 0.78581 83 90 94 
0.0379931 0.010303 0.784679 81 88 92 
0.0366752 0.0102737 0.783489 85 91 93 
0.0354494 0.010471 0.782361 91 91 91 
0.0341804 0.0105525 0.781205 91 91 91 
0.0329133 0.010632 0.780052 91 91 91 
0.0315591 0.0104803 0.778841 95 95 91 
0.0302518 0.010441 0.777662 95 95 91 
0.02877 0.00993925 0.776367 90 90 84 
0.0270717 0.00885797 0.77493 89 89 83 
0.025203 0.00731045 0.773382 88 88 82 
0.0233407 0.00575703 0.77184 87 82 78 
0.0215283 0.00431335 0.770333 96 89 81 
0.0196351 0.00263244 0.768775 99 92 84 
0.0179646 0.00152534 0.767366 107 100 92 
0.0166005 0.00122637 0.76616 108 101 95 
0.015711 0.00220388 0.765267 109 104 100 
0.0148208 0.00318199 0.764373 111 109 101 
0.0147233 0.013249 0.763369 75 70 66 
0.0146203 0.0164618 0.762983 72 69 64 
0.0472329 0.00660801 0.795559 44 49 56 
0.0460873 0.00704402 0.79448 41 46 55 
0.0450351 0.00770527 0.793466 40 46 57 
0.0439832 0.00836611 0.792452 40 46 57 
0.0428399 0.00879979 0.791375 40 46 57 
0.041789 0.00945967 0.790363 42 48 61 
0.0406473 0.00989187 0.789288 46 52 65 
0.0394611 0.0102092 0.788184 57 63 76 
0.0382762 0.0105254 0.78708 68 77 87 
0.0370475 0.0107263 0.785948 69 78 88 
0.0358653 0.0110399 0.784848 82 92 95 
0.0346396 0.0112379 0.783718 84 90 90 
0.0334155 0.0114344 0.782591 84 90 90 
0.0321929 0.0116295 0.781465 88 88 88 
0.0309277 0.0117081 0.780311 90 91 87 
0.0296642 0.011785 0.779159 91 92 88 
0.0283588 0.0117449 0.777979 90 90 86 
0.0270116 0.0115876 0.776772 89 89 83 
0.025667 0.0114277 0.775567 89 89 83 
0.0243249 0.0112656 0.774366 87 84 79 
0.0229853 0.0111012 0.773167 85 83 75 
0.0213458 0.0101232 0.771768 84 82 74 
0.0197541 0.0092569 0.770403 90 87 82 
0.0189386 0.0104774 0.769556 87 84 81 
0.0181218 0.0116991 0.768708 106 103 100 
0.0182824 0.0156006 0.768507 123 124 118 
0.0172816 0.0233781 0.766911 76 73 68 
0.016407 0.0244974 0.76602 70 70 64 
0.0438567 0.00756162 0.794583 41 48 56 
0.0427597 0.00810874 0.793538 40 47 55 
0.0417089 0.00876868 0.792524 40 47 55 
0.0405675 0.00920117 0.791449 42 48 59 
0.0395178 0.00986004 0.790437 42 48 59 
0.0384231 0.0104047 0.789394 34 43 55 
0.037239 0.0107208 0.78829 43 54 65 
0.036101 0.0111499 0.787218 53 64 75 
0.0349192 0.0114637 0.786117 72 83 92 
0.0337386 0.0117763 0.785017 86 97 97 
0.0325594 0.0120876 0.783918 82 93 93 
0.0313814 0.0123979 0.78282 80 86 84 
0.0301605 0.012592 0.781694 87 87 87 
0.0289412 0.0127846 0.78057 88 88 88 
0.0277233 0.0129757 0.779447 89 90 86 
0.0265072 0.0131654 0.778326 88 89 85 
0.0253795 0.0135845 0.777265 88 89 85 
0.0243395 0.0142339 0.776265 85 85 79 
0.0232565 0.0147673 0.775235 84 84 78 
0.0221742 0.0153001 0.774206 85 85 79 
0.0209638 0.015484 0.773092 90 87 82 
0.0199258 0.0161314 0.772093 88 88 84 
0.0193986 0.0181747 0.771438 77 77 73 
0.0191646 0.0210366 0.770979 88 92 87 
0.0190091 0.0241371 0.77057 84 79 75 
0.0184266 0.0260757 0.769874 83 78 74 
0.0175894 0.0273156 0.769007 75 72 69 
0.0394379 0.00916958 0.792597 42 49 57 
0.0382982 0.0096007 0.791522 41 48 56 
0.0372497 0.0102587 0.79051 37 46 56 
0.0362014 0.0109164 0.7895 36 47 58 
0.035064 0.0113453 0.788427 36 47 58 
0.0339275 0.0117733 0.787356 45 58 69 
0.0327919 0.0122005 0.786285 57 69 75 
0.0316573 0.0126267 0.785216 61 73 79 
0.0304796 0.0129372 0.784117 82 90 91 
0.029303 0.0132466 0.78302 84 90 90 
0.0281277 0.0135548 0.781924 80 86 86 
0.0269537 0.0138617 0.780829 85 88 87 
0.0258679 0.0143981 0.779795 88 89 85 
0.024826 0.0150495 0.778792 87 88 84 
0.0238275 0.0158162 0.777819 86 87 83 
0.0228291 0.0165829 0.776846 88 88 84 
0.0218734 0.0174655 0.775902 88 88 84 
0.02096 0.0184644 0.774987 89 89 83 
0.0200885 0.0195803 0.7741 90 90 86 
0.0193855 0.0211625 0.773328 87 87 83 
0.0188912 0.0233294 0.772696 89 90 86 
0.0182248 0.0250332 0.771947 83 80 77 
0.017472 0.0265057 0.771139 82 79 76 
0.0167173 0.0279801 0.770329 75 72 69 
0.0349846 0.0106558 0.790583 38 50 54 
0.0339375 0.0113125 0.789573 38 50 54 
0.0328908 0.0119689 0.788564 38 50 56 
0.0317557 0.0123959 0.787493 38 49 58 
0.0306217 0.0128222 0.786423 40 51 60 
0.0294886 0.0132474 0.785354 43 54 63 
0.0284001 0.0137866 0.784316 49 55 66 
0.0272687 0.0142102 0.783249 54 60 71 
0.0261382 0.0146329 0.782183 79 86 90 
0.0250953 0.0152855 0.781178 80 86 84 
0.0240526 0.0159376 0.780174 80 86 84 
0.0230532 0.0167053 0.779199 84 85 81 
0.0220966 0.0175887 0.778255 88 88 84 
0.0211824 0.0185884 0.777339 89 89 85 
0.0203524 0.0198209 0.776482 90 90 86 
0.0193941 0.0207058 0.775536 90 91 87 
0.0187308 0.0224059 0.774792 87 88 84 
0.0180228 0.0239918 0.774018 87 88 84 
0.0173126 0.0255798 0.773241 75 75 71 
0.0166417 0.0272867 0.77249 72 72 68 
0.0306311 0.0123625 0.788638 38 50 56 
0.0295419 0.012903 0.787598 39 51 57 
0.028497 0.0135576 0.786591 39 50 59 
0.0273651 0.0139821 0.785522 41 50 60 
0.0262777 0.0145207 0.784485 45 54 64 
0.0252342 0.015174 0.783478 60 67 75 
0.0241477 0.0157116 0.782442 66 73 77 
0.0231909 0.0165952 0.781497 78 85 89 
0.0221909 0.0173635 0.780522 82 88 88 
0.0212335 0.0182476 0.779577 84 88 83 
0.0203183 0.0192479 0.778661 85 89 84 
0.0194447 0.0203651 0.777775 88 89 85 
0.0186123 0.0215994 0.776916 89 90 86 
0.0178205 0.0229513 0.776086 86 87 83 
0.0170271 0.0243047 0.775254 83 84 80 
0.0163155 0.0258931 0.774478 73 74 70 
0.0156015 0.0274836 0.7737 69 70 66 
0.0273303 0.0134087 0.787704 42 49 57 
0.0262864 0.0140626 0.786697 43 50 58 
0.0252427 0.0147163 0.78569 43 50 58 
0.0241994 0.0153695 0.784683 48 55 63 
0.0231563 0.0160226 0.783677 56 63 71 
0.0221564 0.0167909 0.782702 56 63 71 
0.0212417 0.0177906 0.781787 62 69 75 
0.0202413 0.0185592 0.780812 79 87 86 
0.0193256 0.0195598 0.779896 83 91 90 
0.0184934 0.0207934 0.779039 84 90 88 
0.0176601 0.0220281 0.778181 83 89 87 
0.0168671 0.0233806 0.777351 82 88 86 
0.0160725 0.0247346 0.77652 78 81 80 
0.0153178 0.0262067 0.775716 72 73 67 
0.0145611 0.0276807 0.77491 68 69 63 
0.0230785 0.0153345 0.785827 46 53 59 
0.0220359 0.0159873 0.784821 46 53 61 
0.0211216 0.0169865 0.783906 46 53 61 
0.0202065 0.0179864 0.782992 46 53 61 
0.0192485 0.0188709 0.782046 48 55 63 
0.0183744 0.0199879 0.781161 46 53 61 
0.0174993 0.0211058 0.780274 48 58 63 
0.016665 0.0223408 0.779417 61 71 76 
0.0158294 0.0235772 0.778558 65 75 80 
0.0150339 0.0249313 0.777728 67 75 76 
0.0142368 0.0262868 0.776896 67 70 71 
0.0191287 0.0180666 0.784166 43 50 58 
0.0182128 0.019067 0.783251 45 52 60 
0.0173382 0.020184 0.782366 45 52 60 
0.0164626 0.021302 0.78148 41 51 56 
0.0156276 0.0225373 0.780623 54 64 69 
0.0147913 0.0237738 0.779765 58 68 73 
0.013995 0.0251282 0.778936 62 69 73 
0.013197 0.026484 0.778105 66 69 72 
0.015384 0.0213822 0.782656 45 52 58 
0.0145485 0.0226175 0.7818 52 62 65 
0.0137116 0.023854 0.780943 55 65 68 
0.0128734 0.0250917 0.780084 60 68 69 
0.0120339 0.0263305 0.779225 64 70 70 
0.0125497 0.0237011 0.78206 56 64 65 
0.0117523 0.0250552 0.781232 60 66 68 
0.130095 -0.0495573 0.77304 72 109 139 
0.136803 -0.0398597 0.766291 131 131 135 
0.138493 -0.0382758 0.766665 139 138 142 
0.143801 -0.0303214 0.761416 116 129 140 
0.14353 -0.0287454 0.760166 84 106 120 
0.0317681 0.0141999 0.72242 126 126 122 
0.0332523 0.0156851 0.722295 129 130 126 
0.0333762 0.0172834 0.72392 129 129 129 
0.0335744 0.0189576 0.726545 131 132 128 
0.0354856 0.0238551 0.731794 128 132 127 
0.0130761 -0.00919223 0.737919 130 130 130 
0.0144266 -0.00929413 0.734294 126 126 126 
0.0116536 -0.00760591 0.740168 131 132 128 
0.0130942 -0.0076619 0.738294 130 131 127 
0.014428 -0.00778288 0.734294 126 126 126 
0.0101965 -0.00603042 0.741793 137 138 134 
0.0116656 -0.00607402 0.740418 133 134 130 
0.0131123 -0.00612983 0.738668 133 134 130 
0.0144353 -0.00626738 0.734419 128 129 125 
0.0102029 -0.00449881 0.741918 136 137 133 
0.011667 -0.00454962 0.740418 135 136 132 
0.0131194 -0.00460472 0.738793 137 137 133 
0.0145009 -0.00470767 0.735794 131 131 127 
0.015876 -0.00480621 0.732919 131 131 127 
0.0116526 -0.0030389 0.740043 138 138 134 
0.0131265 -0.00307892 0.738918 138 138 134 
0.0145549 -0.0031512 0.736919 136 136 132 
0.0159447 -0.00324653 0.734294 133 133 129 
0.0173044 -0.00335567 0.731294 132 132 128 
0.011723 -0.00145148 0.741668 140 140 134 
0.0132115 -0.00148406 0.740793 139 139 133 
0.0146557 -0.00155075 0.739043 139 139 133 
0.016056 -0.00164668 0.736544 140 140 134 
0.0173952 -0.00178163 0.733044 138 138 132 
0.0187528 -0.00189213 0.730169 137 137 131 
0.0118094 0.000158412 0.743668 140 141 135 
0.0133077 0.000129199 0.742918 139 140 134 
0.0147739 7.43102e-05 0.741543 139 140 134 
0.0161614 -4.22895e-05 0.738668 140 141 135 
0.017505 -0.000184577 0.735169 138 139 133 
0.0188076 -0.000347409 0.731169 137 138 132 
0.0119224 0.00180401 0.746293 142 143 137 
0.0134319 0.00177868 0.745668 140 141 135 
0.0149331 0.001748 0.744918 140 141 135 
0.016346 0.00164162 0.742418 143 144 138 
0.0176658 0.00146494 0.738294 140 141 135 
0.0189354 0.00126125 0.733544 138 139 133 
0.0202331 0.00109547 0.729669 137 138 132 
0.0119824 0.00340414 0.747667 140 144 139 
0.0135394 0.00342295 0.748042 140 141 135 
0.0150923 0.00343616 0.748292 140 141 135 
0.0165489 0.00335861 0.746543 144 145 139 
0.0178648 0.00316192 0.742168 139 140 134 
0.0191161 0.00292554 0.736919 139 140 134 
0.020366 0.00270624 0.732044 138 139 133 
0.0216741 0.0025494 0.728545 136 137 131 
0.0120795 0.00505187 0.749917 143 144 140 
0.0136525 0.00508341 0.750542 142 143 137 
0.0152107 0.0050972 0.750792 142 143 137 
0.0167763 0.005117 0.751167 143 144 138 
0.0180957 0.00490519 0.746668 139 140 136 
0.0193764 0.00467561 0.741793 139 140 136 
0.0205954 0.00441041 0.736169 138 139 135 
0.0218265 0.00417496 0.731169 136 137 133 
0.0231182 0.0040049 0.727545 135 139 134 
0.0138881 0.00689113 0.755792 142 143 137 
0.0154692 0.00691792 0.756292 142 143 137 
0.0170525 0.0069448 0.756792 143 144 138 
0.0183267 0.00666771 0.751167 139 140 136 
0.0196501 0.00645891 0.746918 140 141 137 
0.020818 0.00612604 0.740168 138 139 135 
0.0220146 0.00584284 0.734419 136 136 132 
0.0232465 0.00560933 0.729669 136 137 133 
0.024566 0.00546275 0.72667 133 134 130 
0.0142573 0.0088765 0.764041 141 141 135 
0.0157568 0.00879447 0.762416 143 143 137 
0.0172557 0.00871897 0.760916 143 143 137 
0.018615 0.00850768 0.756792 140 141 135 
0.0198841 0.00822527 0.751292 142 143 137 
0.0210406 0.00785879 0.744168 138 139 135 
0.0222029 0.00752468 0.737669 136 136 132 
0.0233972 0.00724237 0.732169 136 136 132 
0.0246837 0.00705716 0.728545 136 136 132 
0.0260265 0.00693024 0.726045 128 131 130 
0.0145098 0.0107556 0.769665 141 141 135 
0.0158872 0.0105154 0.765166 144 144 138 
0.0173554 0.0103964 0.762916 141 141 135 
0.0187444 0.0102033 0.759291 139 140 136 
0.0200189 0.00990937 0.753792 140 141 137 
0.0211669 0.0095144 0.746418 142 143 139 
0.0223197 0.00915314 0.739668 138 138 134 
0.0235258 0.00886599 0.734294 133 133 129 
0.0248091 0.00866645 0.730544 134 134 130 
0.0261403 0.00852084 0.727795 131 132 128 
0.0274847 0.00839549 0.72542 131 132 128 
0.0159127 0.0121221 0.765666 144 144 138 
0.0173821 0.0119984 0.763416 143 143 137 
0.0187531 0.0117768 0.759416 139 140 136 
0.0200345 0.0114783 0.754042 140 141 137 
0.0212451 0.0111308 0.747792 143 144 140 
0.022408 0.0107623 0.741168 143 144 140 
0.0236173 0.0104638 0.735794 132 133 129 
0.0249269 0.0102774 0.732419 133 134 130 
0.0262621 0.0101261 0.729669 132 133 129 
0.0276023 0.00998876 0.72717 131 132 128 
0.0289237 0.00984452 0.724545 128 129 125 
0.0159674 0.0137676 0.76679 144 144 138 
0.0173966 0.0135883 0.763666 144 144 138 
0.0187682 0.0133583 0.759666 139 140 136 
0.0200502 0.0130485 0.754292 140 141 137 
0.0212338 0.0126587 0.747543 142 143 139 
0.0224249 0.0123053 0.741418 143 144 140 
0.023657 0.0120174 0.736419 132 133 129 
0.0249833 0.0118384 0.733294 132 133 129 
0.0263443 0.0117031 0.730919 132 133 129 
0.0276955 0.0115679 0.728545 132 133 129 
0.0289859 0.0113891 0.72542 132 133 129 
0.0175392 0.0153376 0.76654 146 146 140 
0.0188724 0.0150465 0.761666 144 144 138 
0.0200262 0.0145748 0.753792 144 144 138 
0.0212157 0.0141783 0.747168 142 143 139 
0.0224275 0.0138346 0.741418 142 143 139 
0.0237042 0.0135813 0.737169 133 134 130 
0.0250398 0.0134033 0.734169 132 133 129 
0.0264027 0.0132631 0.731794 132 133 129 
0.0277394 0.0131078 0.729169 135 136 132 
0.0290058 0.0128999 0.72567 132 133 129 
0.0303363 0.0127598 0.723295 131 128 125 
0.0199294 0.0160135 0.751917 144 144 140 
0.0212115 0.0157122 0.747043 145 145 141 
0.0224445 0.0153797 0.741668 143 144 140 
0.0237292 0.0151253 0.737544 137 138 134 
0.0251733 0.0150501 0.736294 133 134 130 
0.026501 0.014866 0.733294 132 133 129 
0.0278245 0.0146896 0.730419 136 137 133 
0.0290173 0.0144042 0.725795 132 133 129 
0.0303655 0.0142747 0.72367 131 131 127 
0.0198857 0.0175089 0.751042 144 144 140 
0.0211935 0.0172296 0.746668 146 146 142 
0.0224401 0.0169019 0.741543 144 145 141 
0.0237987 0.0167194 0.738668 137 138 134 
0.0252607 0.0166578 0.737669 135 136 132 
0.0266709 0.016548 0.735919 132 133 129 
0.0293171 0.0161833 0.730169 133 134 130 
0.0304736 0.015864 0.72517 131 132 128 
0.0318794 0.0157866 0.72392 129 130 126 
0.0213616 0.0189704 0.749667 145 145 141 
0.0226218 0.0186403 0.744668 144 145 141 
0.0239203 0.0183768 0.740668 142 143 139 
0.0253174 0.0182383 0.738544 135 136 132 
0.0267772 0.0181747 0.737544 132 133 129 
0.0281673 0.0180446 0.735544 137 138 134 
0.030844 0.0177097 0.730419 132 133 129 
0.0320989 0.0174799 0.72692 131 131 131 
0.0205603 0.021477 0.763666 147 147 143 
0.0218537 0.0211277 0.758541 146 146 142 
0.022825 0.0204179 0.748167 146 146 142 
0.0240494 0.0200515 0.742793 144 144 140 
0.0253666 0.0198141 0.739293 138 139 135 
0.026836 0.0197571 0.738419 135 136 132 
0.0282937 0.0196916 0.737419 136 137 133 
0.0296796 0.0195574 0.735419 136 137 133 
0.0310834 0.019449 0.733794 133 134 130 
0.0323095 0.0191775 0.729794 133 134 130 
0.0219324 0.0227918 0.759916 146 146 140 
0.0229926 0.0221663 0.751042 147 147 141 
0.0241118 0.0216558 0.743793 145 145 139 
0.0254004 0.0213756 0.739793 139 140 134 
0.026871 0.0213168 0.738918 137 138 132 
0.0283463 0.021267 0.738169 135 136 130 
0.0298016 0.0211995 0.737169 136 137 133 
0.0312005 0.0210789 0.735419 133 134 130 
0.0325382 0.0209053 0.732919 133 134 130 
0.0338191 0.0206875 0.729794 132 133 129 
0.022087 0.0245623 0.762666 147 147 141 
0.0233033 0.0241095 0.756417 146 146 140 
0.0243153 0.0234379 0.747168 145 145 139 
0.0255112 0.0230307 0.741543 140 141 137 
0.0269378 0.0229154 0.739918 138 139 135 
0.0283989 0.0228458 0.738918 136 137 133 
0.0298475 0.0227672 0.737794 136 137 133 
0.031309 0.0227068 0.736919 133 134 130 
0.0326949 0.0225736 0.735044 133 134 130 
0.0339804 0.0223492 0.731919 130 134 129 
0.0235355 0.0259725 0.760416 145 145 139 
0.0246673 0.0254222 0.753042 144 144 138 
0.0257758 0.0248812 0.745793 137 138 134 
0.0270684 0.0245936 0.741918 135 136 132 
0.0284845 0.0244657 0.740168 137 138 134 
0.0299358 0.0243847 0.739043 135 136 132 
0.0313913 0.0243132 0.738044 131 135 130 
0.0328067 0.0242043 0.736544 131 135 130 
0.0341882 0.0240672 0.734669 130 134 129 
0.0250046 0.0274123 0.758666 144 144 138 
0.026125 0.0268561 0.751417 138 139 133 
0.0273263 0.0264349 0.745918 124 125 119 
0.0286523 0.0261876 0.742668 136 137 131 
0.030075 0.0260657 0.741043 135 136 132 
0.0314999 0.0259536 0.739543 133 134 130 
0.0329186 0.0258415 0.738044 133 134 130 
0.0343033 0.0257006 0.736169 129 133 128 
0.0356804 0.0255597 0.734294 127 130 129 
0.0263744 0.0287262 0.755417 142 143 137 
0.0275683 0.0282737 0.749667 132 133 127 
0.0288695 0.0279798 0.745918 135 136 130 
0.0302568 0.027805 0.743668 135 136 130 
0.0316698 0.02767 0.741918 133 134 130 
0.0330937 0.0275548 0.740418 133 134 130 
0.0345114 0.0274398 0.738918 131 132 128 
0.035942 0.0273446 0.737669 129 130 126 
0.0264625 0.0303998 0.756792 144 145 139 
0.0277469 0.0300472 0.752417 136 137 131 
0.0291197 0.0298269 0.749667 135 136 130 
0.0305151 0.0296474 0.747418 135 136 130 
0.0319186 0.0294884 0.745418 133 134 128 
0.0333409 0.02936 0.743793 133 134 128 
0.0347566 0.0292316 0.742168 132 133 127 
0.0362228 0.0291645 0.741293 130 131 127 
0.02652 0.0320378 0.757666 144 145 139 
0.0278937 0.0317908 0.754667 139 140 134 
0.0292879 0.0315857 0.752167 136 137 131 
0.0307225 0.0314433 0.750417 136 137 131 
0.0321587 0.0313115 0.748792 137 138 132 
0.0335883 0.0311797 0.747168 137 138 132 
0.0349834 0.0310167 0.745168 136 137 131 
0.036437 0.0309269 0.744043 129 130 126 
0.0378567 0.0308058 0.742543 126 127 123 
0.0280248 0.0335229 0.756667 139 140 134 
0.0294725 0.0333768 0.754917 136 137 131 
0.030947 0.0332737 0.753667 136 137 131 
0.0323815 0.0331277 0.751917 137 138 132 
0.0338088 0.0329819 0.750167 138 139 133 
0.0352103 0.0328147 0.748167 137 138 132 
0.0366513 0.0327012 0.746793 123 126 125 
0.0380867 0.0325878 0.745418 119 122 121 
0.0295751 0.0350701 0.756417 134 139 129 
0.0310359 0.0349425 0.754917 136 137 131 
0.0324906 0.0348149 0.753417 137 138 132 
0.0339211 0.0346654 0.751667 138 139 133 
0.0353538 0.034527 0.750042 136 137 131 
0.0367798 0.0343887 0.748417 119 125 125 
0.0311334 0.0366281 0.756292 135 136 130 
0.0325998 0.0365087 0.754917 137 138 132 
0.0340427 0.0363668 0.753292 136 137 131 
0.0354603 0.0362026 0.751417 130 130 130 
0.0326129 0.0380826 0.755042 136 137 133 
0.126807 -0.0531439 0.776308 132 132 128 
0.128252 -0.0531924 0.774558 130 130 130 
0.125366 -0.0515615 0.778308 135 136 132 
0.126829 -0.0516061 0.776808 131 132 128 
0.12827 -0.0516621 0.774933 130 131 127 
0.123921 -0.0499665 0.780432 137 138 134 
0.125372 -0.0500306 0.778433 137 138 134 
0.126841 -0.0500742 0.777058 133 134 130 
0.128288 -0.05013 0.775308 133 134 130 
0.129611 -0.0502676 0.771058 128 129 125 
0.125378 -0.048499 0.778558 136 137 133 
0.126842 -0.0485498 0.777058 135 136 132 
0.128295 -0.0486049 0.775433 137 137 133 
0.129676 -0.0487079 0.772433 131 131 127 
0.126828 -0.0470391 0.776683 138 138 134 
0.128302 -0.0470791 0.775558 138 138 134 
0.12973 -0.0471514 0.773558 136 136 132 
0.13112 -0.0472467 0.770934 133 133 129 
0.126899 -0.0454517 0.778308 140 140 134 
0.128387 -0.0454842 0.777433 139 139 133 
0.129831 -0.0455509 0.775683 139 139 133 
0.131232 -0.0456469 0.773183 140 140 134 
0.132571 -0.0457818 0.769684 138 138 132 
0.126985 -0.0438418 0.780308 140 141 135 
0.128483 -0.043871 0.779558 139 140 134 
0.129949 -0.0439259 0.778183 139 140 134 
0.131337 -0.0440425 0.775308 140 141 135 
0.132681 -0.0441848 0.771808 138 139 133 
0.127098 -0.0421962 0.782932 142 143 137 
0.128607 -0.0422215 0.782307 140 141 135 
0.130109 -0.0422522 0.781557 140 141 135 
0.131521 -0.0423586 0.779058 143 144 138 
0.132841 -0.0425352 0.774933 140 141 135 
0.134111 -0.0427389 0.770184 138 139 133 
0.127158 -0.040596 0.784307 140 144 139 
0.128715 -0.0405772 0.784682 140 141 135 
0.130268 -0.040564 0.784932 140 141 135 
0.131724 -0.0406416 0.783182 144 145 139 
0.13304 -0.0408383 0.778808 139 140 134 
0.134292 -0.0410746 0.773558 139 140 134 
0.135542 -0.0412939 0.768684 138 139 133 
0.127255 -0.0389483 0.786557 143 144 140 
0.128828 -0.0389168 0.787182 142 143 137 
0.130386 -0.038903 0.787432 142 143 137 
0.131952 -0.0388832 0.787807 143 144 138 
0.133271 -0.039095 0.783307 139 140 136 
0.134552 -0.0393246 0.778433 139 140 136 
0.135771 -0.0395898 0.772808 138 139 135 
0.137002 -0.0398252 0.767809 136 137 133 
0.129064 -0.0371091 0.792431 142 143 137 
0.130645 -0.0370823 0.792931 142 143 137 
0.132228 -0.0370554 0.793431 143 144 138 
0.133502 -0.0373325 0.787807 139 140 136 
0.134826 -0.0375413 0.783557 140 141 137 
0.135993 -0.0378741 0.776808 138 139 135 
0.13719 -0.0381573 0.771058 136 136 132 
0.138422 -0.0383908 0.766309 136 137 133 
0.129433 -0.0351237 0.80068 141 141 135 
0.130932 -0.0352057 0.799056 143 143 137 
0.132431 -0.0352812 0.797556 143 143 137 
0.13379 -0.0354925 0.793431 140 141 135 
0.13506 -0.0357749 0.787932 142 143 137 
0.136216 -0.0361414 0.780807 138 139 135 
0.137378 -0.0364755 0.774308 136 136 132 
0.138573 -0.0367578 0.768809 136 136 132 
0.139859 -0.036943 0.765184 136 136 132 
0.129685 -0.0332446 0.806305 141 141 135 
0.131063 -0.0334848 0.801805 144 144 138 
0.132531 -0.0336038 0.799555 141 141 135 
0.13392 -0.0337968 0.795931 139 140 136 
0.135194 -0.0340908 0.790431 140 141 137 
0.136342 -0.0344858 0.783057 142 143 139 
0.137495 -0.034847 0.776308 138 138 134 
0.138701 -0.0351342 0.770934 133 133 129 
0.139985 -0.0353337 0.767184 134 134 130 
0.141316 -0.0354793 0.764434 131 132 128 
0.129721 -0.0316143 0.807055 143 143 137 
0.131088 -0.031878 0.802305 144 144 138 
0.132558 -0.0320017 0.800055 143 143 137 
0.133929 -0.0322234 0.796056 139 140 136 
0.13521 -0.0325219 0.790681 140 141 137 
0.136421 -0.0328694 0.784432 143 144 140 
0.137584 -0.0332379 0.777808 143 144 140 
0.138793 -0.0335364 0.772433 132 133 129 
0.140102 -0.0337228 0.769059 133 134 130 
0.141438 -0.0338741 0.766309 132 133 129 
0.142778 -0.0340114 0.763809 131 132 128 
0.131143 -0.0302326 0.80343 144 144 138 
0.132572 -0.0304118 0.800305 144 144 138 
0.133944 -0.0306419 0.796306 139 140 136 
0.135226 -0.0309517 0.790931 140 141 137 
0.136409 -0.0313415 0.784182 142 143 139 
0.1376 -0.0316948 0.778058 143 144 140 
0.138832 -0.0319828 0.773058 132 133 129 
0.140159 -0.0321618 0.769934 132 133 129 
0.14152 -0.0322971 0.767559 132 133 129 
0.142871 -0.0324323 0.765184 132 133 129 
0.13125 -0.0285144 0.80568 144 144 138 
0.132715 -0.0286626 0.80318 146 146 140 
0.134048 -0.0289537 0.798306 144 144 138 
0.135202 -0.0294254 0.790431 144 144 138 
0.136391 -0.0298219 0.783807 142 143 139 
0.137603 -0.0301656 0.778058 142 143 139 
0.13888 -0.0304189 0.773808 133 134 130 
0.140215 -0.0305968 0.770809 132 133 129 
0.141578 -0.0307371 0.768434 132 133 129 
0.142915 -0.0308924 0.765809 135 136 132 
0.144181 -0.0311003 0.762309 132 133 129 
0.135105 -0.0279867 0.788557 144 144 140 
0.136387 -0.028288 0.783682 145 145 141 
0.13762 -0.0286205 0.778308 143 144 140 
0.138905 -0.0288749 0.774183 137 138 134 
0.140349 -0.02895 0.772933 133 134 130 
0.141676 -0.0291342 0.769934 132 133 129 
0.143 -0.0293106 0.767059 136 137 133 
0.144193 -0.029596 0.762434 132 133 129 
0.135061 -0.0264913 0.787682 144 144 140 
0.136369 -0.0267706 0.783307 146 146 142 
0.137616 -0.0270982 0.778183 144 145 141 
0.138974 -0.0272808 0.775308 137 138 134 
0.140436 -0.0273423 0.774308 135 136 132 
0.141846 -0.0274522 0.772558 132 133 129 
0.144493 -0.0278169 0.766809 133 134 130 
0.136537 -0.0250298 0.786307 145 145 141 
0.137797 -0.0253599 0.781307 144 145 141 
0.139096 -0.0256234 0.777308 142 143 139 
0.140493 -0.0257619 0.775183 135 136 132 
0.141953 -0.0258255 0.774183 132 133 129 
0.143343 -0.0259555 0.772183 137 138 134 
0.14602 -0.0262905 0.767059 132 133 129 
0.135736 -0.0225232 0.800305 147 147 143 
0.137029 -0.0228724 0.795181 146 146 142 
0.138001 -0.0235823 0.784807 146 146 142 
0.139225 -0.0239486 0.779433 144 144 140 
0.140542 -0.0241861 0.775933 138 139 135 
0.142011 -0.0242431 0.775058 135 136 132 
0.143469 -0.0243086 0.774058 136 137 133 
0.144855 -0.0244428 0.772058 136 137 133 
0.146259 -0.0245511 0.770434 133 134 130 
0.135778 -0.0208926 0.801055 149 146 141 
0.137108 -0.0212084 0.796556 146 146 140 
0.138168 -0.0218339 0.787682 147 147 141 
0.139287 -0.0223443 0.780432 145 145 139 
0.140576 -0.0226246 0.776433 139 140 134 
0.142046 -0.0226833 0.775558 137 138 132 
0.143522 -0.0227332 0.774808 135 136 130 
0.144977 -0.0228007 0.773808 136 137 133 
0.146376 -0.0229212 0.772058 133 134 130 
0.137262 -0.0194379 0.799305 147 147 141 
0.138479 -0.0198907 0.793056 146 146 140 
0.139491 -0.0205623 0.783807 145 145 139 
0.140687 -0.0209695 0.778183 140 141 137 
0.142113 -0.0210847 0.776558 138 139 135 
0.143574 -0.0211544 0.775558 136 137 133 
0.145023 -0.021233 0.774433 136 137 133 
0.146484 -0.0212933 0.773558 133 134 130 
0.138711 -0.0180276 0.797056 145 145 139 
0.139843 -0.018578 0.789681 144 144 138 
0.140951 -0.019119 0.782432 137 138 134 
0.142244 -0.0194066 0.778558 135 136 132 
0.14366 -0.0195345 0.776808 137 138 134 
0.145111 -0.0196155 0.775683 135 136 132 
0.146567 -0.019687 0.774683 131 135 130 
0.138872 -0.0162438 0.799805 145 145 139 
0.14018 -0.0165879 0.795306 144 144 138 
0.1413 -0.0171441 0.788057 138 139 133 
0.142502 -0.0175652 0.782557 124 125 119 
0.143828 -0.0178126 0.779308 136 137 131 
0.145251 -0.0179345 0.777683 135 136 132 
0.146675 -0.0180466 0.776183 133 134 130 
0.140302 -0.0148611 0.797306 144 145 139 
0.14155 -0.015274 0.792056 142 143 137 
0.142744 -0.0157265 0.786307 132 133 127 
0.144045 -0.0160204 0.782557 135 136 130 
0.145432 -0.0161951 0.780308 135 136 130 
0.146845 -0.0163302 0.778558 133 134 130 
0.140306 -0.0132884 0.797306 145 146 140 
0.141638 -0.0136004 0.793431 144 145 139 
0.142922 -0.013953 0.789057 136 137 131 
0.144295 -0.0141733 0.786307 135 136 130 
0.145691 -0.0143528 0.784057 135 136 130 
0.147094 -0.0145118 0.782057 133 134 128 
0.140294 -0.0117362 0.797056 144 145 139 
0.141695 -0.0119624 0.794306 144 145 139 
0.143069 -0.0122094 0.791306 139 140 134 
0.144463 -0.0124145 0.788807 136 137 131 
0.145898 -0.0125569 0.787057 136 137 131 
